-0.0031568001 0.0026332256 0.3070000112
-0.0024387345 0.0026246484 0.3060000241
-0.0014950242 0.0026246484 0.3060000241
-0.0007846687 0.0026160709 0.3050000072
0.0001559578 0.0026160709 0.3050000072
0.0008586032 0.0026074937 0.3040000200
0.0017961456 0.0026074937 0.3040000200
0.0024993024 0.0026074937 0.3040000200
0.0034255395 0.0025989166 0.3030000031
0.0041263835 0.0025989166 0.3030000031
0.0050441395 0.0025903392 0.3020000160
0.0057426700 0.0025903392 0.3020000160
0.0064198724 0.0025817619 0.3010000288
0.0073481626 0.0025817619 0.3010000288
0.0082764532 0.0025817619 0.3010000288
0.0089726709 0.0025817619 0.3010000288
0.0099009611 0.0025817619 0.3010000288
0.0105619729 0.0025731844 0.3000000119
0.0114871785 0.0025731844 0.3000000119
0.0121810837 0.0025731844 0.3000000119
0.0131062903 0.0025731844 0.3000000119
0.0140314959 0.0025731844 0.3000000119
0.0147254011 0.0025731844 0.3000000119
0.0156506076 0.0025731844 0.3000000119
0.0163445119 0.0025731844 0.3000000119
0.0172697175 0.0025731844 0.3000000119
0.0181949250 0.0025731844 0.3000000119
0.0188888293 0.0025731844 0.3000000119
0.0198140349 0.0025731844 0.3000000119
0.0205079410 0.0025731844 0.3000000119
0.0214331467 0.0025731844 0.3000000119
0.0223583523 0.0025731844 0.3000000119
0.0233611707 0.0025817619 0.3010000288
0.0240573883 0.0025817619 0.3010000288
0.0249856785 0.0025817619 0.3010000288
0.0256818961 0.0025817619 0.3010000288
0.0266985931 0.0025903392 0.3020000160
0.0276299678 0.0025903392 0.3020000160
0.0283284988 0.0025903392 0.3020000160
0.0293567609 0.0025989166 0.3030000031
0.0302912183 0.0025989166 0.3030000031
0.0313287340 0.0026074937 0.3040000200
0.0320318900 0.0026074937 0.3040000200
0.0330778807 0.0026160709 0.3050000072
0.0340185091 0.0026160709 0.3050000072
0.0350737534 0.0026246484 0.3060000241
0.0361351706 0.0026332256 0.3070000112
-0.0131965950 0.0029433791 0.3150000274
-0.0124679953 0.0029433791 0.3150000274
-0.0114600314 0.0029340351 0.3140000105
-0.0106995609 0.0029246910 0.3130000234
-0.0099437162 0.0029153470 0.3120000064
-0.0089815017 0.0029153470 0.3120000064
-0.0082333665 0.0029060030 0.3110000193
-0.0072508459 0.0028966588 0.3100000024
-0.0065338109 0.0028966588 0.3100000024
-0.0055597723 0.0028873147 0.3090000153
-0.0048293704 0.0028779707 0.3080000281
-0.0038794917 0.0028779707 0.3080000281
0.0369652845 0.0028779707 0.3080000281
0.0379151627 0.0028779707 0.3080000281
0.0389912240 0.0028873147 0.3090000153
0.0400734581 0.0028966588 0.3100000024
0.0411618575 0.0029060030 0.3110000193
0.0418812037 0.0029060030 0.3110000193
0.0429780856 0.0029153470 0.3120000064
-0.0106995609 0.0036446962 0.3130000234
-0.0097342618 0.0036446962 0.3130000234
-0.0089815017 0.0036330514 0.3120000064
-0.0082333665 0.0036214071 0.3110000193
-0.0072742361 0.0036214071 0.3110000193
-0.0065338109 0.0036097628 0.3100000024
-0.0055597723 0.0035981184 0.3090000153
-0.0048293704 0.0035864741 0.3080000281
-0.0038794917 0.0035864741 0.3080000281
-0.0031568001 0.0035748298 0.3070000112
-0.0024467043 0.0035748298 0.3070000112
-0.0014950242 0.0035631852 0.3060000241
-0.0007872414 0.0035631852 0.3060000241
0.0001559578 0.0035515409 0.3050000072
0.0008614276 0.0035515409 0.3050000072
0.0017961456 0.0035398966 0.3040000200
0.0024993024 0.0035398966 0.3040000200
0.0034255395 0.0035282522 0.3030000031
0.0041263835 0.0035282522 0.3030000031
0.0050441395 0.0035166079 0.3020000160
0.0057426700 0.0035166079 0.3020000160
0.0066740443 0.0035166079 0.3020000160
0.0073481626 0.0035049631 0.3010000288
0.0082764532 0.0035049631 0.3010000288
0.0089726709 0.0035049631 0.3010000288
0.0099009611 0.0035049631 0.3010000288
0.0105971787 0.0035049631 0.3010000288
0.0115254689 0.0035049631 0.3010000288
0.0121810837 0.0034933188 0.3000000119
0.0131062903 0.0034933188 0.3000000119
0.0140314959 0.0034933188 0.3000000119
0.0147254011 0.0034933188 0.3000000119
0.0156506076 0.0034933188 0.3000000119
0.0163445119 0.0034933188 0.3000000119
0.0172697175 0.0034933188 0.3000000119
0.0181949250 0.0034933188 0.3000000119
0.0188888293 0.0034933188 0.3000000119
0.0198140349 0.0034933188 0.3000000119
0.0205079410 0.0034933188 0.3000000119
0.0214331467 0.0034933188 0.3000000119
0.0224328805 0.0035049631 0.3010000288
0.0233611707 0.0035049631 0.3010000288
0.0240573883 0.0035049631 0.3010000288
0.0249856785 0.0035049631 0.3010000288
0.0260000620 0.0035166079 0.3020000160
0.0266985931 0.0035166079 0.3020000160
0.0276299678 0.0035166079 0.3020000160
0.0286559165 0.0035282522 0.3030000031
0.0293567609 0.0035282522 0.3030000031
0.0303911902 0.0035398966 0.3040000200
0.0313287340 0.0035398966 0.3040000200
0.0320318900 0.0035398966 0.3040000200
0.0330778807 0.0035515409 0.3050000072
0.0341300443 0.0035631852 0.3060000241
0.0350737534 0.0035631852 0.3060000241
0.0361351706 0.0035748298 0.3070000112
0.0369652845 0.0035864741 0.3080000281
0.0379151627 0.0035864741 0.3080000281
0.0389912240 0.0035981184 0.3090000153
0.0400734581 0.0036097628 0.3100000024
0.0411618575 0.0036214071 0.3110000193
0.0418812037 0.0036214071 0.3110000193
0.0429780856 0.0036330514 0.3120000064
0.0439403020 0.0036330514 0.3120000064
-0.0131965950 0.0039095199 0.3150000274
-0.0124284141 0.0038971088 0.3140000105
-0.0114600314 0.0038971088 0.3140000105
0.0017961456 0.0042391983 0.3040000200
0.0024993024 0.0042391983 0.3040000200
0.0034255395 0.0042252541 0.3030000031
0.0041263835 0.0042252541 0.3030000031
0.0050608418 0.0042252541 0.3030000031
0.0057426700 0.0042113094 0.3020000160
0.0066740443 0.0042113094 0.3020000160
0.0073725753 0.0042113094 0.3020000160
0.0082764532 0.0041973642 0.3010000288
0.0089726709 0.0041973642 0.3010000288
0.0099009611 0.0041973642 0.3010000288
0.0105971787 0.0041973642 0.3010000288
0.0115254689 0.0041973642 0.3010000288
0.0124537600 0.0041973642 0.3010000288
0.0131499767 0.0041973642 0.3010000288
0.0140782669 0.0041973642 0.3010000288
0.0147254011 0.0041834195 0.3000000119
0.0156506076 0.0041834195 0.3000000119
0.0163445119 0.0041834195 0.3000000119
0.0172697175 0.0041834195 0.3000000119
0.0181949250 0.0041834195 0.3000000119
0.0188888293 0.0041834195 0.3000000119
0.0198140349 0.0041834195 0.3000000119
0.0208083726 0.0041973642 0.3010000288
0.0215045903 0.0041973642 0.3010000288
0.0224328805 0.0041973642 0.3010000288
0.0233611707 0.0041973642 0.3010000288
0.0240573883 0.0041973642 0.3010000288
0.0250686873 0.0042113094 0.3020000160
0.0260000620 0.0042113094 0.3020000160
0.0266985931 0.0042113094 0.3020000160
0.0276299678 0.0042113094 0.3020000160
0.0286559165 0.0042252541 0.3030000031
0.0293567609 0.0042252541 0.3030000031
0.0303911902 0.0042391983 0.3040000200
0.0313287340 0.0042391983 0.3040000200
0.0320318900 0.0042391983 0.3040000200
-0.0124679953 0.0046341256 0.3150000274
-0.0114600314 0.0046194145 0.3140000105
-0.0106995609 0.0046047028 0.3130000234
-0.0097342618 0.0046047028 0.3130000234
-0.0089815017 0.0045899912 0.3120000064
-0.0082333665 0.0045752795 0.3110000193
-0.0072742361 0.0045752795 0.3110000193
-0.0065338109 0.0045605684 0.3100000024
-0.0055597723 0.0045458567 0.3090000153
-0.0048450502 0.0045458567 0.3090000153
-0.0038794917 0.0045311456 0.3080000281
-0.0031568001 0.0045164339 0.3070000112
-0.0024467043 0.0045164339 0.3070000112
-0.0014950242 0.0045017223 0.3060000241
-0.0007872414 0.0045017223 0.3060000241
0.0001559578 0.0044870107 0.3050000072
0.0008614276 0.0044870107 0.3050000072
0.0330778807 0.0044870107 0.3050000072
0.0341300443 0.0045017223 0.3060000241
0.0350737534 0.0045017223 0.3060000241
0.0361351706 0.0045164339 0.3070000112
0.0369652845 0.0045311456 0.3080000281
0.0379151627 0.0045311456 0.3080000281
0.0389912240 0.0045458567 0.3090000153
0.0400734581 0.0045605684 0.3100000024
0.0411618575 0.0045752795 0.3110000193
0.0418812037 0.0045752795 0.3110000193
0.0429780856 0.0045899912 0.3120000064
0.0439403020 0.0045899912 0.3120000064
-0.0055597723 0.0052566603 0.3090000153
-0.0048450502 0.0052566603 0.3090000153
-0.0038794917 0.0052396487 0.3080000281
-0.0031568001 0.0052226367 0.3070000112
-0.0024467043 0.0052226367 0.3070000112
-0.0014950242 0.0052056247 0.3060000241
-0.0007872414 0.0052056247 0.3060000241
0.0001559578 0.0051886132 0.3050000072
0.0008614276 0.0051886132 0.3050000072
0.0017961456 0.0051716012 0.3040000200
0.0024993024 0.0051716012 0.3040000200
0.0034368448 0.0051716012 0.3040000200
0.0041263835 0.0051545897 0.3030000031
0.0050608418 0.0051545897 0.3030000031
0.0057616853 0.0051545897 0.3030000031
0.0066740443 0.0051375777 0.3020000160
0.0073725753 0.0051375777 0.3020000160
0.0083039496 0.0051375777 0.3020000160
0.0089726709 0.0051205656 0.3010000288
0.0099009611 0.0051205656 0.3010000288
0.0105971787 0.0051205656 0.3010000288
0.0115254689 0.0051205656 0.3010000288
0.0124537600 0.0051205656 0.3010000288
0.0131499767 0.0051205656 0.3010000288
0.0140782669 0.0051205656 0.3010000288
0.0147744846 0.0051205656 0.3010000288
0.0157027747 0.0051205656 0.3010000288
0.0163445119 0.0051035536 0.3000000119
0.0172697175 0.0051035536 0.3000000119
0.0182555728 0.0051205656 0.3010000288
0.0189517904 0.0051205656 0.3010000288
0.0198800825 0.0051205656 0.3010000288
0.0208083726 0.0051205656 0.3010000288
0.0215045903 0.0051205656 0.3010000288
0.0224328805 0.0051205656 0.3010000288
0.0233611707 0.0051205656 0.3010000288
0.0241373144 0.0051375777 0.3020000160
0.0250686873 0.0051375777 0.3020000160
0.0260000620 0.0051375777 0.3020000160
0.0266985931 0.0051375777 0.3020000160
0.0277214572 0.0051545897 0.3030000031
0.0286559165 0.0051545897 0.3030000031
0.0293567609 0.0051545897 0.3030000031
0.0303911902 0.0051716012 0.3040000200
0.0313287340 0.0051716012 0.3040000200
0.0323724113 0.0051886132 0.3050000072
0.0330778807 0.0051886132 0.3050000072
0.0341300443 0.0052056247 0.3060000241
0.0350737534 0.0052056247 0.3060000241
0.0361351706 0.0052226367 0.3070000112
0.0369652845 0.0052396487 0.3080000281
0.0380382612 0.0052566603 0.3090000153
0.0389912240 0.0052566603 0.3090000153
-0.0114600314 0.0055824881 0.3140000105
-0.0107337451 0.0055824881 0.3140000105
-0.0097342618 0.0055647097 0.3130000234
-0.0089815017 0.0055469307 0.3120000064
-0.0082333665 0.0055291522 0.3110000193
-0.0072742361 0.0055291522 0.3110000193
-0.0065338109 0.0055113737 0.3100000024
0.0400734581 0.0055113737 0.3100000024
0.0411618575 0.0055291522 0.3110000193
0.0418812037 0.0055291522 0.3110000193
0.0429780856 0.0055469307 0.3120000064
0.0439403020 0.0055469307 0.3120000064
-0.0107337451 0.0063047931 0.3140000105
-0.0097653624 0.0063047931 0.3140000105
-0.0090102879 0.0062847147 0.3130000234
-0.0080192871 0.0062646354 0.3120000064
-0.0072742361 0.0062445565 0.3110000193
-0.0065338109 0.0062244777 0.3100000024
-0.0055777645 0.0062244777 0.3100000024
-0.0048450502 0.0062043988 0.3090000153
-0.0038794917 0.0061843200 0.3080000281
-0.0031670830 0.0061843200 0.3080000281
-0.0024467043 0.0061642411 0.3070000112
-0.0014950242 0.0061441618 0.3060000241
-0.0007872414 0.0061441618 0.3060000241
0.0001564691 0.0061441618 0.3060000241
0.0008614276 0.0061240830 0.3050000072
0.0018020539 0.0061240830 0.3050000072
0.0024993024 0.0061040041 0.3040000200
0.0034368448 0.0061040041 0.3040000200
0.0041263835 0.0060839253 0.3030000031
0.0050608418 0.0060839253 0.3030000031
0.0057616853 0.0060839253 0.3030000031
0.0066740443 0.0060638464 0.3020000160
0.0073725753 0.0060638464 0.3020000160
0.0083039496 0.0060638464 0.3020000160
0.0092353243 0.0060638464 0.3020000160
0.0099009611 0.0060437671 0.3010000288
0.0105971787 0.0060437671 0.3010000288
0.0115254689 0.0060437671 0.3010000288
0.0124537600 0.0060437671 0.3010000288
0.0131499767 0.0060437671 0.3010000288
0.0140782669 0.0060437671 0.3010000288
0.0147744846 0.0060437671 0.3010000288
0.0157027747 0.0060437671 0.3010000288
0.0166310649 0.0060437671 0.3010000288
0.0173272826 0.0060437671 0.3010000288
0.0182555728 0.0060437671 0.3010000288
0.0189517904 0.0060437671 0.3010000288
0.0198800825 0.0060437671 0.3010000288
0.0208083726 0.0060437671 0.3010000288
0.0215045903 0.0060437671 0.3010000288
0.0224328805 0.0060437671 0.3010000288
0.0234387834 0.0060638464 0.3020000160
0.0241373144 0.0060638464 0.3020000160
0.0250686873 0.0060638464 0.3020000160
0.0260000620 0.0060638464 0.3020000160
0.0267869998 0.0060839253 0.3030000031
0.0277214572 0.0060839253 0.3030000031
0.0286559165 0.0060839253 0.3030000031
0.0296880342 0.0061040041 0.3040000200
0.0303911902 0.0061040041 0.3040000200
0.0313287340 0.0061040041 0.3040000200
0.0323724113 0.0061240830 0.3050000072
0.0330778807 0.0061240830 0.3050000072
0.0341300443 0.0061441618 0.3060000241
0.0350737534 0.0061441618 0.3060000241
0.0361351706 0.0061642411 0.3070000112
0.0369652845 0.0061843200 0.3080000281
0.0380382612 0.0062043988 0.3090000153
0.0389912240 0.0062043988 0.3090000153
0.0400734581 0.0062244777 0.3100000024
0.0411618575 0.0062445565 0.3110000193
0.0418812037 0.0062445565 0.3110000193
0.0429780856 0.0062646354 0.3120000064
0.0439403020 0.0062646354 0.3120000064
0.0008614276 0.0068256850 0.3050000072
0.0018020539 0.0068256850 0.3050000072
0.0024993024 0.0068033058 0.3040000200
0.0034368448 0.0068033058 0.3040000200
0.0041400017 0.0068033058 0.3040000200
0.0050608418 0.0067809266 0.3030000031
0.0057616853 0.0067809266 0.3030000031
0.0066961437 0.0067809266 0.3030000031
0.0073725753 0.0067585474 0.3020000160
0.0083039496 0.0067585474 0.3020000160
0.0092353243 0.0067585474 0.3020000160
0.0099338545 0.0067585474 0.3020000160
0.0105971787 0.0067361682 0.3010000288
0.0115254689 0.0067361682 0.3010000288
0.0124537600 0.0067361682 0.3010000288
0.0131499767 0.0067361682 0.3010000288
0.0140782669 0.0067361682 0.3010000288
0.0147744846 0.0067361682 0.3010000288
0.0157027747 0.0067361682 0.3010000288
0.0166310649 0.0067361682 0.3010000288
0.0173272826 0.0067361682 0.3010000288
0.0182555728 0.0067361682 0.3010000288
0.0189517904 0.0067361682 0.3010000288
0.0198800825 0.0067361682 0.3010000288
0.0208083726 0.0067361682 0.3010000288
0.0218088776 0.0067585474 0.3020000160
0.0225074086 0.0067585474 0.3020000160
0.0234387834 0.0067585474 0.3020000160
0.0241373144 0.0067585474 0.3020000160
0.0250686873 0.0067585474 0.3020000160
0.0260861553 0.0067809266 0.3030000031
0.0267869998 0.0067809266 0.3030000031
0.0277214572 0.0067809266 0.3030000031
0.0287504904 0.0068033058 0.3040000200
0.0296880342 0.0068033058 0.3040000200
0.0303911902 0.0068033058 0.3040000200
0.0313287340 0.0068033058 0.3040000200
0.0323724113 0.0068256850 0.3050000072
0.0330778807 0.0068256850 0.3050000072
-0.0107337451 0.0072678672 0.3140000105
-0.0097653624 0.0072678672 0.3140000105
-0.0090102879 0.0072447215 0.3130000234
-0.0080192871 0.0072215749 0.3120000064
-0.0072742361 0.0071984297 0.3110000193
-0.0063151051 0.0071984297 0.3110000193
-0.0055777645 0.0071752830 0.3100000024
-0.0048450502 0.0071521369 0.3090000153
-0.0038794917 0.0071289912 0.3080000281
-0.0031670830 0.0071289912 0.3080000281
-0.0024467043 0.0071058446 0.3070000112
-0.0014950242 0.0070826989 0.3060000241
-0.0007872414 0.0070826989 0.3060000241
0.0001564691 0.0070826989 0.3060000241
0.0341300443 0.0070826989 0.3060000241
0.0350737534 0.0070826989 0.3060000241
0.0361351706 0.0071058446 0.3070000112
0.0369652845 0.0071289912 0.3080000281
0.0380382612 0.0071521369 0.3090000153
0.0391174108 0.0071752830 0.3100000024
0.0400734581 0.0071752830 0.3100000024
0.0411618575 0.0071984297 0.3110000193
0.0418812037 0.0071984297 0.3110000193
0.0429780856 0.0072215749 0.3120000064
0.0439403020 0.0072215749 0.3120000064
-0.0072742361 0.0079138335 0.3110000193
-0.0063151051 0.0079138335 0.3110000193
-0.0055777645 0.0078883870 0.3100000024
-0.0048450502 0.0078629404 0.3090000153
-0.0038794917 0.0078374948 0.3080000281
-0.0031670830 0.0078374948 0.3080000281
-0.0024467043 0.0078120478 0.3070000112
-0.0014999099 0.0078120478 0.3070000112
-0.0007872414 0.0077866018 0.3060000241
0.0001564691 0.0077866018 0.3060000241
0.0008614276 0.0077611553 0.3050000072
0.0018020539 0.0077611553 0.3050000072
0.0024993024 0.0077357083 0.3040000200
0.0034368448 0.0077357083 0.3040000200
0.0041400017 0.0077357083 0.3040000200
0.0050775441 0.0077357083 0.3040000200
0.0057616853 0.0077102622 0.3030000031
0.0066961437 0.0077102622 0.3030000031
0.0076306020 0.0077102622 0.3030000031
0.0083039496 0.0076848157 0.3020000160
0.0092353243 0.0076848157 0.3020000160
0.0099338545 0.0076848157 0.3020000160
0.0108652292 0.0076848157 0.3020000160
0.0115637602 0.0076848157 0.3020000160
0.0124537600 0.0076593696 0.3010000288
0.0131499767 0.0076593696 0.3010000288
0.0140782669 0.0076593696 0.3010000288
0.0147744846 0.0076593696 0.3010000288
0.0157027747 0.0076593696 0.3010000288
0.0166310649 0.0076593696 0.3010000288
0.0173272826 0.0076593696 0.3010000288
0.0182555728 0.0076593696 0.3010000288
0.0189517904 0.0076593696 0.3010000288
0.0198800825 0.0076593696 0.3010000288
0.0208083726 0.0076593696 0.3010000288
0.0218088776 0.0076848157 0.3020000160
0.0225074086 0.0076848157 0.3020000160
0.0234387834 0.0076848157 0.3020000160
0.0241373144 0.0076848157 0.3020000160
0.0251516961 0.0077102622 0.3030000031
0.0260861553 0.0077102622 0.3030000031
0.0267869998 0.0077102622 0.3030000031
0.0277214572 0.0077102622 0.3030000031
0.0287504904 0.0077357083 0.3040000200
0.0296880342 0.0077357083 0.3040000200
0.0303911902 0.0077357083 0.3040000200
0.0313287340 0.0077357083 0.3040000200
0.0323724113 0.0077611553 0.3050000072
0.0330778807 0.0077611553 0.3050000072
0.0341300443 0.0077866018 0.3060000241
0.0351883769 0.0078120478 0.3070000112
0.0361351706 0.0078120478 0.3070000112
0.0369652845 0.0078374948 0.3080000281
0.0380382612 0.0078629404 0.3090000153
0.0391174108 0.0078883870 0.3100000024
0.0400734581 0.0078883870 0.3100000024
0.0411618575 0.0079138335 0.3110000193
0.0418812037 0.0079138335 0.3110000193
-0.0140578160 0.0083357943 0.3180000186
-0.0132803833 0.0083095804 0.3170000017
-0.0122639379 0.0082833683 0.3160000145
-0.0114965290 0.0082571544 0.3150000274
-0.0105250617 0.0082571544 0.3150000274
-0.0097653624 0.0082309414 0.3140000105
-0.0090102879 0.0082047284 0.3130000234
-0.0080192871 0.0081785144 0.3120000064
0.0429780856 0.0081785144 0.3120000064
0.0092353243 0.0083795171 0.3020000160
0.0099338545 0.0083795171 0.3020000160
0.0108652292 0.0083795171 0.3020000160
0.0115637602 0.0083795171 0.3020000160
0.0124951340 0.0083795171 0.3020000160
0.0134265088 0.0083795171 0.3020000160
0.0140782669 0.0083517712 0.3010000288
0.0147744846 0.0083517712 0.3010000288
0.0157027747 0.0083517712 0.3010000288
0.0166310649 0.0083517712 0.3010000288
0.0173272826 0.0083517712 0.3010000288
0.0182555728 0.0083517712 0.3010000288
0.0189517904 0.0083517712 0.3010000288
0.0199461281 0.0083795171 0.3020000160
0.0208775029 0.0083795171 0.3020000160
0.0218088776 0.0083795171 0.3020000160
0.0225074086 0.0083795171 0.3020000160
0.0234387834 0.0083795171 0.3020000160
-0.0123027479 0.0090387873 0.3170000017
-0.0114965290 0.0089817606 0.3150000274
-0.0105250617 0.0089817606 0.3150000274
-0.0097653624 0.0089532463 0.3140000105
-0.0090102879 0.0089247329 0.3130000234
-0.0080192871 0.0088962195 0.3120000064
-0.0072976258 0.0088962195 0.3120000064
-0.0063151051 0.0088677062 0.3110000193
-0.0055777645 0.0088391928 0.3100000024
-0.0048450502 0.0088106785 0.3090000153
-0.0038920876 0.0088106785 0.3090000153
-0.0031670830 0.0087821661 0.3080000281
-0.0024467043 0.0087536518 0.3070000112
-0.0014999099 0.0087536518 0.3070000112
-0.0007872414 0.0087251384 0.3060000241
0.0001564691 0.0087251384 0.3060000241
0.0008614276 0.0086966250 0.3050000072
0.0018020539 0.0086966250 0.3050000072
0.0027426803 0.0086966250 0.3050000072
0.0034368448 0.0086681107 0.3040000200
0.0041400017 0.0086681107 0.3040000200
0.0050775441 0.0086681107 0.3040000200
0.0057616853 0.0086395983 0.3030000031
0.0066961437 0.0086395983 0.3030000031
0.0076306020 0.0086395983 0.3030000031
0.0083314460 0.0086395983 0.3030000031
0.0244508516 0.0086395983 0.3030000031
0.0251516961 0.0086395983 0.3030000031
0.0260861553 0.0086395983 0.3030000031
0.0267869998 0.0086395983 0.3030000031
0.0278129485 0.0086681107 0.3040000200
0.0287504904 0.0086681107 0.3040000200
0.0296880342 0.0086681107 0.3040000200
0.0303911902 0.0086681107 0.3040000200
0.0314317867 0.0086966250 0.3050000072
0.0323724113 0.0086966250 0.3050000072
0.0334222615 0.0087251384 0.3060000241
0.0341300443 0.0087251384 0.3060000241
0.0351883769 0.0087536518 0.3070000112
0.0361351706 0.0087536518 0.3070000112
0.0369652845 0.0087821661 0.3080000281
0.0380382612 0.0088106785 0.3090000153
0.0391174108 0.0088391928 0.3100000024
0.0402027257 0.0088677062 0.3110000193
0.0411618575 0.0088677062 0.3110000193
0.0418812037 0.0088677062 0.3110000193
-0.0141020231 0.0093404166 0.3190000057
-0.0133222770 0.0093111368 0.3180000186
-0.0024467043 0.0094598550 0.3070000112
-0.0014999099 0.0094598550 0.3070000112
-0.0007872414 0.0094290413 0.3060000241
0.0001564691 0.0094290413 0.3060000241
0.0011001795 0.0094290413 0.3060000241
0.0018020539 0.0093982276 0.3050000072
0.0027426803 0.0093982276 0.3050000072
0.0034481501 0.0093982276 0.3050000072
0.0041400017 0.0093674129 0.3040000200
0.0050775441 0.0093674129 0.3040000200
0.0060150865 0.0093674129 0.3040000200
0.0066961437 0.0093366001 0.3030000031
0.0076306020 0.0093366001 0.3030000031
0.0083314460 0.0093366001 0.3030000031
0.0092659043 0.0093366001 0.3030000031
0.0099338545 0.0093057854 0.3020000160
0.0108652292 0.0093057854 0.3020000160
0.0115637602 0.0093057854 0.3020000160
0.0124951340 0.0093057854 0.3020000160
0.0134265088 0.0093057854 0.3020000160
0.0141250389 0.0093057854 0.3020000160
0.0147744846 0.0092749717 0.3010000288
0.0157027747 0.0092749717 0.3010000288
0.0166310649 0.0092749717 0.3010000288
0.0173272826 0.0092749717 0.3010000288
0.0183162242 0.0093057854 0.3020000160
0.0192475989 0.0093057854 0.3020000160
0.0199461281 0.0093057854 0.3020000160
0.0208775029 0.0093057854 0.3020000160
0.0218088776 0.0093057854 0.3020000160
0.0225074086 0.0093057854 0.3020000160
0.0235163942 0.0093366001 0.3030000031
0.0244508516 0.0093366001 0.3030000031
0.0251516961 0.0093366001 0.3030000031
0.0260861553 0.0093366001 0.3030000031
0.0271097925 0.0093674129 0.3040000200
0.0278129485 0.0093674129 0.3040000200
0.0287504904 0.0093674129 0.3040000200
0.0296880342 0.0093674129 0.3040000200
0.0303911902 0.0093674129 0.3040000200
0.0314317867 0.0093982276 0.3050000072
0.0323724113 0.0093982276 0.3050000072
0.0334222615 0.0094290413 0.3060000241
0.0341300443 0.0094290413 0.3060000241
0.0351883769 0.0094598550 0.3070000112
0.0361351706 0.0094598550 0.3070000112
-0.0133222770 0.0100426432 0.3180000186
-0.0123027479 0.0100110620 0.3170000017
-0.0115330247 0.0099794818 0.3160000145
-0.0105250617 0.0099479016 0.3150000274
-0.0097653624 0.0099163204 0.3140000105
-0.0090390751 0.0099163204 0.3140000105
-0.0080449898 0.0098847402 0.3130000234
-0.0072976258 0.0098531591 0.3120000064
-0.0063151051 0.0098215789 0.3110000193
-0.0055777645 0.0097899977 0.3100000024
-0.0048450502 0.0097584166 0.3090000153
-0.0038920876 0.0097584166 0.3090000153
-0.0031670830 0.0097268373 0.3080000281
0.0369652845 0.0097268373 0.3080000281
0.0380382612 0.0097584166 0.3090000153
0.0391174108 0.0097899977 0.3100000024
0.0402027257 0.0098215789 0.3110000193
0.0411618575 0.0098215789 0.3110000193
0.0418812037 0.0098215789 0.3110000193
0.0429780856 0.0098531591 0.3120000064
0.0439403020 0.0098531591 0.3120000064
0.0450464338 0.0098847402 0.3130000234
-0.0080449898 0.0106047448 0.3130000234
-0.0072976258 0.0105708642 0.3120000064
-0.0063151051 0.0105369836 0.3110000193
-0.0055777645 0.0105031021 0.3100000024
-0.0048607294 0.0105031021 0.3100000024
-0.0038920876 0.0104692206 0.3090000153
-0.0031670830 0.0104353400 0.3080000281
-0.0022172045 0.0104353400 0.3080000281
-0.0014999099 0.0104014585 0.3070000112
-0.0005531154 0.0104014585 0.3070000112
0.0001564691 0.0103675788 0.3060000241
0.0011001795 0.0103675788 0.3060000241
0.0018079623 0.0103675788 0.3060000241
0.0027426803 0.0103336973 0.3050000072
0.0034481501 0.0103336973 0.3050000072
0.0041400017 0.0102998158 0.3040000200
0.0050775441 0.0102998158 0.3040000200
0.0060150865 0.0102998158 0.3040000200
0.0067182430 0.0102998158 0.3040000200
0.0076306020 0.0102659352 0.3030000031
0.0083314460 0.0102659352 0.3030000031
0.0092659043 0.0102659352 0.3030000031
0.0099667478 0.0102659352 0.3030000031
0.0108652292 0.0102320537 0.3020000160
0.0115637602 0.0102320537 0.3020000160
0.0124951340 0.0102320537 0.3020000160
0.0134265088 0.0102320537 0.3020000160
0.0141250389 0.0102320537 0.3020000160
0.0150564136 0.0102320537 0.3020000160
0.0157549437 0.0102320537 0.3020000160
0.0166863184 0.0102320537 0.3020000160
0.0176176932 0.0102320537 0.3020000160
0.0183162242 0.0102320537 0.3020000160
0.0192475989 0.0102320537 0.3020000160
0.0199461281 0.0102320537 0.3020000160
0.0208775029 0.0102320537 0.3020000160
0.0218088776 0.0102320537 0.3020000160
0.0225819349 0.0102659352 0.3030000031
0.0235163942 0.0102659352 0.3030000031
0.0244508516 0.0102659352 0.3030000031
0.0251516961 0.0102659352 0.3030000031
0.0260861553 0.0102659352 0.3030000031
0.0271097925 0.0102998158 0.3040000200
0.0278129485 0.0102998158 0.3040000200
0.0287504904 0.0102998158 0.3040000200
0.0296880342 0.0102998158 0.3040000200
0.0304911584 0.0103336973 0.3050000072
0.0314317867 0.0103336973 0.3050000072
0.0323724113 0.0103336973 0.3050000072
0.0334222615 0.0103675788 0.3060000241
0.0341300443 0.0103675788 0.3060000241
0.0351883769 0.0104014585 0.3070000112
0.0362528749 0.0104353400 0.3080000281
0.0369652845 0.0104353400 0.3080000281
0.0380382612 0.0104692206 0.3090000153
0.0391174108 0.0105031021 0.3100000024
0.0402027257 0.0105369836 0.3110000193
0.0411618575 0.0105369836 0.3110000193
0.0422564261 0.0105708642 0.3120000064
0.0429780856 0.0105708642 0.3120000064
-0.0123415580 0.0110179856 0.3180000186
-0.0115330247 0.0109486906 0.3160000145
-0.0105250617 0.0109140426 0.3150000274
-0.0097964620 0.0109140426 0.3150000274
-0.0090390751 0.0108793937 0.3140000105
0.0050775441 0.0109991180 0.3040000200
0.0060150865 0.0109991180 0.3040000200
0.0067182430 0.0109991180 0.3040000200
0.0076557854 0.0109991180 0.3040000200
0.0083314460 0.0109629370 0.3030000031
0.0092659043 0.0109629370 0.3030000031
0.0099667478 0.0109629370 0.3030000031
0.0109012062 0.0109629370 0.3030000031
0.0118356645 0.0109629370 0.3030000031
0.0124951340 0.0109267551 0.3020000160
0.0134265088 0.0109267551 0.3020000160
0.0141250389 0.0109267551 0.3020000160
0.0150564136 0.0109267551 0.3020000160
0.0157549437 0.0109267551 0.3020000160
0.0166863184 0.0109267551 0.3020000160
0.0176176932 0.0109267551 0.3020000160
0.0183162242 0.0109267551 0.3020000160
0.0192475989 0.0109267551 0.3020000160
0.0199461281 0.0109267551 0.3020000160
0.0208775029 0.0109267551 0.3020000160
0.0218810923 0.0109629370 0.3030000031
0.0225819349 0.0109629370 0.3030000031
0.0235163942 0.0109629370 0.3030000031
0.0244508516 0.0109629370 0.3030000031
0.0251516961 0.0109629370 0.3030000031
0.0261722486 0.0109991180 0.3040000200
0.0271097925 0.0109991180 0.3040000200
0.0278129485 0.0109991180 0.3040000200
0.0287504904 0.0109991180 0.3040000200
-0.0123415580 0.0117494920 0.3180000186
-0.0115330247 0.0116755962 0.3160000145
-0.0105584739 0.0116755962 0.3160000145
-0.0097964620 0.0116386479 0.3150000274
-0.0090390751 0.0116016995 0.3140000105
-0.0080449898 0.0115647521 0.3130000234
-0.0072976258 0.0115278037 0.3120000064
-0.0063151051 0.0114908554 0.3110000193
-0.0055957576 0.0114908554 0.3110000193
-0.0048607294 0.0114539070 0.3100000024
-0.0038920876 0.0114169586 0.3090000153
-0.0031670830 0.0113800112 0.3080000281
-0.0022172045 0.0113800112 0.3080000281
-0.0014999099 0.0113430629 0.3070000112
-0.0005531154 0.0113430629 0.3070000112
0.0001564691 0.0113061154 0.3060000241
0.0011001795 0.0113061154 0.3060000241
0.0018079623 0.0113061154 0.3060000241
0.0027426803 0.0112691671 0.3050000072
0.0034481501 0.0112691671 0.3050000072
0.0043887766 0.0112691671 0.3050000072
0.0297856890 0.0112691671 0.3050000072
0.0304911584 0.0112691671 0.3050000072
0.0314317867 0.0112691671 0.3050000072
0.0324785523 0.0113061154 0.3060000241
0.0334222615 0.0113061154 0.3060000241
0.0342415832 0.0113430629 0.3070000112
0.0351883769 0.0113430629 0.3070000112
0.0362528749 0.0113800112 0.3080000281
0.0369652845 0.0113800112 0.3080000281
0.0380382612 0.0114169586 0.3090000153
0.0391174108 0.0114539070 0.3100000024
0.0402027257 0.0114908554 0.3110000193
0.0411618575 0.0114908554 0.3110000193
0.0422564261 0.0115278037 0.3120000064
0.0429780856 0.0115278037 0.3120000064
0.0440811366 0.0115647521 0.3130000234
-0.0158707239 0.0122573320 0.3250000179
-0.0147769200 0.0121819023 0.3230000138
-0.0139429439 0.0121064726 0.3210000098
-0.0038920876 0.0121277627 0.3090000153
-0.0031773658 0.0121277627 0.3090000153
-0.0022172045 0.0120885149 0.3080000281
-0.0015047956 0.0120885149 0.3080000281
-0.0005531154 0.0120492661 0.3070000112
0.0001569804 0.0120492661 0.3070000112
0.0011001795 0.0120100183 0.3060000241
0.0018079623 0.0120100183 0.3060000241
0.0027516729 0.0120100183 0.3060000241
0.0034481501 0.0119707696 0.3050000072
0.0043887766 0.0119707696 0.3050000072
0.0050775441 0.0119315209 0.3040000200
0.0060150865 0.0119315209 0.3040000200
0.0067182430 0.0119315209 0.3040000200
0.0076557854 0.0119315209 0.3040000200
0.0083314460 0.0118922731 0.3030000031
0.0092659043 0.0118922731 0.3030000031
0.0099667478 0.0118922731 0.3030000031
0.0109012062 0.0118922731 0.3030000031
0.0118356645 0.0118922731 0.3030000031
0.0125365090 0.0118922731 0.3030000031
0.0134265088 0.0118530244 0.3020000160
0.0141250389 0.0118530244 0.3020000160
0.0150564136 0.0118530244 0.3020000160
0.0157549437 0.0118530244 0.3020000160
0.0166863184 0.0118530244 0.3020000160
0.0176176932 0.0118530244 0.3020000160
0.0183162242 0.0118530244 0.3020000160
0.0192475989 0.0118530244 0.3020000160
0.0199461281 0.0118530244 0.3020000160
0.0209466331 0.0118922731 0.3030000031
0.0218810923 0.0118922731 0.3030000031
0.0225819349 0.0118922731 0.3030000031
0.0235163942 0.0118922731 0.3030000031
0.0244508516 0.0118922731 0.3030000031
0.0251516961 0.0118922731 0.3030000031
0.0261722486 0.0119315209 0.3040000200
0.0271097925 0.0119315209 0.3040000200
0.0278129485 0.0119315209 0.3040000200
0.0287504904 0.0119315209 0.3040000200
0.0297856890 0.0119707696 0.3050000072
0.0304911584 0.0119707696 0.3050000072
0.0314317867 0.0119707696 0.3050000072
0.0324785523 0.0120100183 0.3060000241
0.0334222615 0.0120100183 0.3060000241
0.0342415832 0.0120492661 0.3070000112
0.0351883769 0.0120492661 0.3070000112
0.0362528749 0.0120885149 0.3080000281
0.0373235382 0.0121277627 0.3090000153
0.0380382612 0.0121277627 0.3090000153
-0.0123803681 0.0127648497 0.3190000057
-0.0115695223 0.0126848193 0.3170000017
-0.0105584739 0.0126448041 0.3160000145
-0.0097964620 0.0126047898 0.3150000274
-0.0090390751 0.0125647737 0.3140000105
-0.0080449898 0.0125247585 0.3130000234
-0.0072976258 0.0124847433 0.3120000064
-0.0063151051 0.0124447281 0.3110000193
-0.0055957576 0.0124447281 0.3110000193
-0.0048607294 0.0124047128 0.3100000024
0.0391174108 0.0124047128 0.3100000024
0.0402027257 0.0124447281 0.3110000193
0.0411618575 0.0124447281 0.3110000193
0.0422564261 0.0124847433 0.3120000064
0.0429780856 0.0124847433 0.3120000064
0.0440811366 0.0125247585 0.3130000234
-0.0156682115 0.0132949259 0.3260000050
-0.0097964620 0.0133293951 0.3150000274
-0.0088249957 0.0133293951 0.3150000274
-0.0080449898 0.0132447639 0.3130000234
-0.0073210159 0.0132447639 0.3130000234
-0.0063354112 0.0132024484 0.3120000064
-0.0055957576 0.0131601319 0.3110000193
-0.0048607294 0.0131178172 0.3100000024
-0.0038920876 0.0130755017 0.3090000153
-0.0031773658 0.0130755017 0.3090000153
-0.0022172045 0.0130331852 0.3080000281
-0.0015047956 0.0130331852 0.3080000281
-0.0005531154 0.0129908705 0.3070000112
0.0001569804 0.0129908705 0.3070000112
0.0011001795 0.0129485549 0.3060000241
0.0018079623 0.0129485549 0.3060000241
0.0027516729 0.0129485549 0.3060000241
0.0034481501 0.0129062403 0.3050000072
0.0043887766 0.0129062403 0.3050000072
0.0050942465 0.0129062403 0.3050000072
0.0060150865 0.0128639238 0.3040000200
0.0067182430 0.0128639238 0.3040000200
0.0076557854 0.0128639238 0.3040000200
0.0083589423 0.0128639238 0.3040000200
0.0092659043 0.0128216082 0.3030000031
0.0099667478 0.0128216082 0.3030000031
0.0109012062 0.0128216082 0.3030000031
0.0118356645 0.0128216082 0.3030000031
0.0125365090 0.0128216082 0.3030000031
0.0134709664 0.0128216082 0.3030000031
0.0141250389 0.0127792936 0.3020000160
0.0150564136 0.0127792936 0.3020000160
0.0157549437 0.0127792936 0.3020000160
0.0166863184 0.0127792936 0.3020000160
0.0176176932 0.0127792936 0.3020000160
0.0183162242 0.0127792936 0.3020000160
0.0192475989 0.0127792936 0.3020000160
0.0202457886 0.0128216082 0.3030000031
0.0209466331 0.0128216082 0.3030000031
0.0218810923 0.0128216082 0.3030000031
0.0225819349 0.0128216082 0.3030000031
0.0235163942 0.0128216082 0.3030000031
0.0244508516 0.0128216082 0.3030000031
0.0254690927 0.0128639238 0.3040000200
0.0261722486 0.0128639238 0.3040000200
0.0271097925 0.0128639238 0.3040000200
0.0278129485 0.0128639238 0.3040000200
0.0288450625 0.0129062403 0.3050000072
0.0297856890 0.0129062403 0.3050000072
0.0304911584 0.0129062403 0.3050000072
0.0315348394 0.0129485549 0.3060000241
0.0324785523 0.0129485549 0.3060000241
0.0334222615 0.0129485549 0.3060000241
0.0342415832 0.0129908705 0.3070000112
0.0353029966 0.0130331852 0.3080000281
0.0362528749 0.0130331852 0.3080000281
0.0373235382 0.0130755017 0.3090000153
0.0380382612 0.0130755017 0.3090000153
0.0391174108 0.0131178172 0.3100000024
0.0402027257 0.0131601319 0.3110000193
0.0412942097 0.0132024484 0.3120000064
0.0422564261 0.0132024484 0.3120000064
0.0431158356 0.0132447639 0.3130000234
0.0440811366 0.0132447639 0.3130000234
0.0451903492 0.0132870786 0.3140000105
-0.0157162715 0.0140879173 0.3270000219
-0.0148684178 0.0140017522 0.3250000179
-0.0123803681 0.0137432599 0.3190000057
-0.0115695223 0.0136570940 0.3170000017
-0.0105584739 0.0136140129 0.3160000145
0.0018079623 0.0136524579 0.3060000241
0.0027516729 0.0136524579 0.3060000241
0.0034594554 0.0136524579 0.3060000241
0.0043887766 0.0136078419 0.3050000072
0.0050942465 0.0136078419 0.3050000072
0.0060348730 0.0136078419 0.3050000072
0.0067182430 0.0135632250 0.3040000200
0.0076557854 0.0135632250 0.3040000200
0.0083589423 0.0135632250 0.3040000200
0.0092964852 0.0135632250 0.3040000200
0.0099667478 0.0135186100 0.3030000031
0.0109012062 0.0135186100 0.3030000031
0.0118356645 0.0135186100 0.3030000031
0.0125365090 0.0135186100 0.3030000031
0.0134709664 0.0135186100 0.3030000031
0.0141718099 0.0135186100 0.3030000031
0.0151062682 0.0135186100 0.3030000031
0.0160407275 0.0135186100 0.3030000031
0.0166863184 0.0134739941 0.3020000160
0.0176176932 0.0134739941 0.3020000160
0.0183162242 0.0134739941 0.3020000160
0.0192475989 0.0134739941 0.3020000160
0.0202457886 0.0135186100 0.3030000031
0.0209466331 0.0135186100 0.3030000031
0.0218810923 0.0135186100 0.3030000031
0.0225819349 0.0135186100 0.3030000031
0.0235163942 0.0135186100 0.3030000031
0.0244508516 0.0135186100 0.3030000031
0.0254690927 0.0135632250 0.3040000200
0.0261722486 0.0135632250 0.3040000200
0.0271097925 0.0135632250 0.3040000200
0.0278129485 0.0135632250 0.3040000200
0.0288450625 0.0136078419 0.3050000072
0.0297856890 0.0136078419 0.3050000072
0.0304911584 0.0136078419 0.3050000072
0.0315348394 0.0136524579 0.3060000241
0.0324785523 0.0136524579 0.3060000241
-0.0123803681 0.0144770667 0.3190000057
-0.0113608390 0.0144316833 0.3180000186
-0.0105584739 0.0143409185 0.3160000145
-0.0097964620 0.0142955361 0.3150000274
-0.0088249957 0.0142955361 0.3150000274
-0.0080706924 0.0142501527 0.3140000105
-0.0073210159 0.0142047703 0.3130000234
-0.0063354112 0.0141593879 0.3120000064
-0.0055957576 0.0141140046 0.3110000193
-0.0048607294 0.0140686221 0.3100000024
-0.0039046830 0.0140686221 0.3100000024
-0.0031773658 0.0140232397 0.3090000153
-0.0022172045 0.0139778564 0.3080000281
-0.0015047956 0.0139778564 0.3080000281
-0.0005531154 0.0139324740 0.3070000112
0.0001569804 0.0139324740 0.3070000112
0.0011037749 0.0139324740 0.3070000112
0.0335314870 0.0139324740 0.3070000112
0.0342415832 0.0139324740 0.3070000112
0.0353029966 0.0139778564 0.3080000281
0.0362528749 0.0139778564 0.3080000281
0.0373235382 0.0140232397 0.3090000153
0.0384003744 0.0140686221 0.3100000024
0.0392435938 0.0141140046 0.3110000193
0.0402027257 0.0141140046 0.3110000193
0.0412942097 0.0141593879 0.3120000064
0.0422564261 0.0141593879 0.3120000064
0.0431158356 0.0142047703 0.3130000234
0.0440811366 0.0142047703 0.3130000234
0.0451903492 0.0142501527 0.3140000105
-0.0157162715 0.0150908642 0.3270000219
-0.0148684178 0.0149985645 0.3250000179
-0.0055957576 0.0148294093 0.3110000193
-0.0046366267 0.0148294093 0.3110000193
-0.0039046830 0.0147817265 0.3100000024
-0.0031773658 0.0147340437 0.3090000153
-0.0022244032 0.0147340437 0.3090000153
-0.0015047956 0.0146863600 0.3080000281
-0.0005549171 0.0146863600 0.3080000281
0.0001569804 0.0146386772 0.3070000112
0.0011037749 0.0146386772 0.3070000112
0.0018079623 0.0145909945 0.3060000241
0.0027516729 0.0145909945 0.3060000241
0.0034594554 0.0145909945 0.3060000241
0.0044031660 0.0145909945 0.3060000241
0.0050942465 0.0145433126 0.3050000072
0.0060348730 0.0145433126 0.3050000072
0.0069754990 0.0145433126 0.3050000072
0.0076557854 0.0144956280 0.3040000200
0.0083589423 0.0144956280 0.3040000200
0.0092964852 0.0144956280 0.3040000200
0.0102340272 0.0144956280 0.3040000200
0.0109012062 0.0144479452 0.3030000031
0.0118356645 0.0144479452 0.3030000031
0.0125365090 0.0144479452 0.3030000031
0.0134709664 0.0144479452 0.3030000031
0.0141718099 0.0144479452 0.3030000031
0.0151062682 0.0144479452 0.3030000031
0.0160407275 0.0144479452 0.3030000031
0.0167415701 0.0144479452 0.3030000031
0.0176760294 0.0144479452 0.3030000031
0.0183768719 0.0144479452 0.3030000031
0.0193113312 0.0144479452 0.3030000031
0.0202457886 0.0144479452 0.3030000031
0.0209466331 0.0144479452 0.3030000031
0.0218810923 0.0144479452 0.3030000031
0.0225819349 0.0144479452 0.3030000031
0.0235163942 0.0144479452 0.3030000031
0.0244508516 0.0144479452 0.3030000031
0.0254690927 0.0144956280 0.3040000200
0.0261722486 0.0144956280 0.3040000200
0.0271097925 0.0144956280 0.3040000200
0.0278129485 0.0144956280 0.3040000200
0.0288450625 0.0145433126 0.3050000072
0.0297856890 0.0145433126 0.3050000072
0.0304911584 0.0145433126 0.3050000072
0.0315348394 0.0145909945 0.3060000241
0.0324785523 0.0145909945 0.3060000241
0.0335314870 0.0146386772 0.3070000112
0.0342415832 0.0146386772 0.3070000112
0.0353029966 0.0146863600 0.3080000281
0.0363705754 0.0147340437 0.3090000153
0.0373235382 0.0147340437 0.3090000153
0.0384003744 0.0147817265 0.3100000024
0.0392435938 0.0148294093 0.3110000193
0.0402027257 0.0148294093 0.3110000193
-0.0157162715 0.0158430729 0.3270000219
-0.0123803681 0.0154554760 0.3190000057
-0.0113608390 0.0154070249 0.3180000186
-0.0105584739 0.0153101264 0.3160000145
-0.0097964620 0.0152616771 0.3150000274
-0.0088249957 0.0152616771 0.3150000274
-0.0080706924 0.0152132269 0.3140000105
-0.0073210159 0.0151647776 0.3130000234
-0.0063354112 0.0151163274 0.3120000064
0.0412942097 0.0151163274 0.3120000064
0.0423918627 0.0151647776 0.3130000234
0.0431158356 0.0151647776 0.3130000234
0.0440811366 0.0151647776 0.3130000234
0.0451903492 0.0152132269 0.3140000105
-0.0165733788 0.0161922444 0.3290000260
-0.0105918869 0.0160877816 0.3170000017
-0.0098275617 0.0160370320 0.3160000145
-0.0088249957 0.0159862824 0.3150000274
-0.0080706924 0.0159355327 0.3140000105
-0.0073210159 0.0158847831 0.3130000234
-0.0063354112 0.0158340335 0.3120000064
-0.0055957576 0.0157832820 0.3110000193
-0.0046366267 0.0157832820 0.3110000193
-0.0039046830 0.0157325324 0.3100000024
-0.0031773658 0.0156817827 0.3090000153
-0.0022244032 0.0156817827 0.3090000153
-0.0015047956 0.0156310312 0.3080000281
-0.0005549171 0.0156310312 0.3080000281
0.0001569804 0.0155802816 0.3070000112
0.0011037749 0.0155802816 0.3070000112
0.0018138709 0.0155802816 0.3070000112
0.0027516729 0.0155295320 0.3060000241
0.0034594554 0.0155295320 0.3060000241
0.0044031660 0.0155295320 0.3060000241
0.0050942465 0.0154787824 0.3050000072
0.0060348730 0.0154787824 0.3050000072
0.0069754990 0.0154787824 0.3050000072
0.0076557854 0.0154280309 0.3040000200
0.0083589423 0.0154280309 0.3040000200
0.0092964852 0.0154280309 0.3040000200
0.0102340272 0.0154280309 0.3040000200
0.0109371841 0.0154280309 0.3040000200
0.0118356645 0.0153772812 0.3030000031
0.0125365090 0.0153772812 0.3030000031
0.0134709664 0.0153772812 0.3030000031
0.0141718099 0.0153772812 0.3030000031
0.0151062682 0.0153772812 0.3030000031
0.0160407275 0.0153772812 0.3030000031
0.0167415701 0.0153772812 0.3030000031
0.0176760294 0.0153772812 0.3030000031
0.0183768719 0.0153772812 0.3030000031
0.0193113312 0.0153772812 0.3030000031
0.0202457886 0.0153772812 0.3030000031
0.0209466331 0.0153772812 0.3030000031
0.0218810923 0.0153772812 0.3030000031
0.0225819349 0.0153772812 0.3030000031
0.0235163942 0.0153772812 0.3030000031
0.0245315488 0.0154280309 0.3040000200
0.0254690927 0.0154280309 0.3040000200
0.0261722486 0.0154280309 0.3040000200
0.0271097925 0.0154280309 0.3040000200
0.0281395931 0.0154787824 0.3050000072
0.0288450625 0.0154787824 0.3050000072
0.0297856890 0.0154787824 0.3050000072
0.0308270585 0.0155295320 0.3060000241
0.0315348394 0.0155295320 0.3060000241
0.0324785523 0.0155295320 0.3060000241
0.0335314870 0.0155802816 0.3070000112
0.0345905870 0.0156310312 0.3080000281
0.0353029966 0.0156310312 0.3080000281
0.0363705754 0.0156817827 0.3090000153
0.0373235382 0.0156817827 0.3090000153
0.0384003744 0.0157325324 0.3100000024
0.0392435938 0.0157832820 0.3110000193
0.0403319970 0.0158340335 0.3120000064
0.0412942097 0.0158340335 0.3120000064
0.0423918627 0.0158847831 0.3130000234
0.0431158356 0.0158847831 0.3130000234
0.0442219675 0.0159355327 0.3140000105
0.0451903492 0.0159355327 0.3140000105
-0.0165733788 0.0169490539 0.3290000260
-0.0157162715 0.0168460198 0.3270000219
-0.0149141680 0.0167945027 0.3260000050
-0.0140298158 0.0166399535 0.3230000138
-0.0121724568 0.0164854024 0.3200000226
-0.0113608390 0.0163823683 0.3180000186
-0.0005549171 0.0163395349 0.3080000281
0.0003949614 0.0163395349 0.3080000281
0.0011037749 0.0162864849 0.3070000112
0.0018138709 0.0162864849 0.3070000112
0.0027516729 0.0162334349 0.3060000241
0.0034594554 0.0162334349 0.3060000241
0.0044031660 0.0162334349 0.3060000241
0.0053468761 0.0162334349 0.3060000241
0.0060348730 0.0161803849 0.3050000072
0.0069754990 0.0161803849 0.3050000072
0.0076809688 0.0161803849 0.3050000072
0.0083589423 0.0161273330 0.3040000200
0.0092964852 0.0161273330 0.3040000200
0.0102340272 0.0161273330 0.3040000200
0.0109371841 0.0161273330 0.3040000200
0.0118747260 0.0161273330 0.3040000200
0.0125365090 0.0160742830 0.3030000031
0.0134709664 0.0160742830 0.3030000031
0.0141718099 0.0160742830 0.3030000031
0.0151062682 0.0160742830 0.3030000031
0.0160407275 0.0160742830 0.3030000031
0.0167415701 0.0160742830 0.3030000031
0.0176760294 0.0160742830 0.3030000031
0.0183768719 0.0160742830 0.3030000031
0.0193113312 0.0160742830 0.3030000031
0.0202457886 0.0160742830 0.3030000031
0.0209466331 0.0160742830 0.3030000031
0.0218810923 0.0160742830 0.3030000031
0.0225819349 0.0160742830 0.3030000031
0.0235163942 0.0160742830 0.3030000031
0.0245315488 0.0161273330 0.3040000200
0.0254690927 0.0161273330 0.3040000200
0.0261722486 0.0161273330 0.3040000200
0.0271097925 0.0161273330 0.3040000200
0.0281395931 0.0161803849 0.3050000072
0.0288450625 0.0161803849 0.3050000072
0.0297856890 0.0161803849 0.3050000072
0.0308270585 0.0162334349 0.3060000241
0.0315348394 0.0162334349 0.3060000241
0.0325846896 0.0162864849 0.3070000112
0.0335314870 0.0162864849 0.3070000112
0.0345905870 0.0163395349 0.3080000281
0.0353029966 0.0163395349 0.3080000281
-0.0140298158 0.0173829608 0.3230000138
-0.0132004656 0.0172753260 0.3210000098
-0.0121724568 0.0172215085 0.3200000226
-0.0113608390 0.0171138737 0.3180000186
-0.0105918869 0.0170600582 0.3170000017
-0.0098275617 0.0170062408 0.3160000145
-0.0088249957 0.0169524234 0.3150000274
-0.0080706924 0.0168986060 0.3140000105
-0.0073210159 0.0168447886 0.3130000234
-0.0063354112 0.0167909730 0.3120000064
-0.0056137503 0.0167909730 0.3120000064
-0.0046366267 0.0167371538 0.3110000193
-0.0039046830 0.0166833363 0.3100000024
-0.0029486369 0.0166833363 0.3100000024
-0.0022244032 0.0166295208 0.3090000153
-0.0012714406 0.0166295208 0.3090000153
0.0363705754 0.0166295208 0.3090000153
0.0374443270 0.0166833363 0.3100000024
0.0384003744 0.0166833363 0.3100000024
0.0392435938 0.0167371538 0.3110000193
0.0403319970 0.0167909730 0.3120000064
0.0414265655 0.0168447886 0.3130000234
0.0423918627 0.0168447886 0.3130000234
0.0434956811 0.0168986060 0.3140000105
0.0442219675 0.0168986060 0.3140000105
0.0451903492 0.0168986060 0.3140000105
-0.0165733788 0.0179581344 0.3290000260
-0.0157162715 0.0178489666 0.3270000219
-0.0148684178 0.0177397970 0.3250000179
-0.0063557173 0.0175647940 0.3130000234
-0.0056137503 0.0175086763 0.3120000064
-0.0046366267 0.0174525585 0.3110000193
-0.0039172792 0.0174525585 0.3110000193
-0.0029486369 0.0173964407 0.3100000024
-0.0022244032 0.0173403248 0.3090000153
-0.0012714406 0.0173403248 0.3090000153
-0.0005549171 0.0172842052 0.3080000281
0.0003949614 0.0172842052 0.3080000281
0.0011037749 0.0172280893 0.3070000112
0.0018138709 0.0172280893 0.3070000112
0.0027606653 0.0172280893 0.3070000112
0.0034594554 0.0171719715 0.3060000241
0.0044031660 0.0171719715 0.3060000241
0.0053468761 0.0171719715 0.3060000241
0.0060348730 0.0171158537 0.3050000072
0.0069754990 0.0171158537 0.3050000072
0.0076809688 0.0171158537 0.3050000072
0.0086215958 0.0171158537 0.3050000072
0.0092964852 0.0170597360 0.3040000200
0.0102340272 0.0170597360 0.3040000200
0.0109371841 0.0170597360 0.3040000200
0.0118747260 0.0170597360 0.3040000200
0.0128122689 0.0170597360 0.3040000200
0.0134709664 0.0170036182 0.3030000031
0.0141718099 0.0170036182 0.3030000031
0.0151062682 0.0170036182 0.3030000031
0.0160407275 0.0170036182 0.3030000031
0.0167415701 0.0170036182 0.3030000031
0.0176760294 0.0170036182 0.3030000031
0.0183768719 0.0170036182 0.3030000031
0.0193113312 0.0170036182 0.3030000031
0.0202457886 0.0170036182 0.3030000031
0.0209466331 0.0170036182 0.3030000031
0.0218810923 0.0170036182 0.3030000031
0.0225819349 0.0170036182 0.3030000031
0.0235163942 0.0170036182 0.3030000031
0.0245315488 0.0170597360 0.3040000200
0.0254690927 0.0170597360 0.3040000200
0.0261722486 0.0170597360 0.3040000200
0.0271097925 0.0170597360 0.3040000200
0.0281395931 0.0171158537 0.3050000072
0.0288450625 0.0171158537 0.3050000072
0.0298833475 0.0171719715 0.3060000241
0.0308270585 0.0171719715 0.3060000241
0.0315348394 0.0171719715 0.3060000241
0.0325846896 0.0172280893 0.3070000112
0.0335314870 0.0172280893 0.3070000112
0.0345905870 0.0172842052 0.3080000281
0.0356558561 0.0173403248 0.3090000153
0.0363705754 0.0173403248 0.3090000153
0.0374443270 0.0173964407 0.3100000024
0.0385242477 0.0174525585 0.3110000193
0.0392435938 0.0174525585 0.3110000193
0.0403319970 0.0175086763 0.3120000064
0.0414265655 0.0175647940 0.3130000234
0.0423918627 0.0175647940 0.3130000234
-0.0165733788 0.0187149458 0.3290000260
-0.0157162715 0.0186011754 0.3270000219
-0.0140298158 0.0183736384 0.3230000138
-0.0132004656 0.0182598699 0.3210000098
-0.0121724568 0.0182029866 0.3200000226
-0.0113608390 0.0180892162 0.3180000186
-0.0105918869 0.0180323329 0.3170000017
-0.0098275617 0.0179754496 0.3160000145
-0.0088530108 0.0179754496 0.3160000145
-0.0080706924 0.0178616792 0.3140000105
-0.0071023102 0.0178616792 0.3140000105
0.0434956811 0.0178616792 0.3140000105
0.0442219675 0.0178616792 0.3140000105
0.0453342684 0.0179185644 0.3150000274
0.0092964852 0.0177590381 0.3040000200
0.0102340272 0.0177590381 0.3040000200
0.0109371841 0.0177590381 0.3040000200
0.0118747260 0.0177590381 0.3040000200
0.0128122689 0.0177590381 0.3040000200
0.0135154258 0.0177590381 0.3040000200
0.0144529678 0.0177590381 0.3040000200
0.0151062682 0.0177006200 0.3030000031
