7.408671765041674462e-03 -2.537391132620570033e-02 2.784342066152021289e-01
-3.136538579937564464e-04 -2.469878441599604457e-02 2.872457549674436450e-01
-6.161949844646130714e-03 -2.308827436474558681e-02 2.972777792019769549e-01
-1.160722157506910435e-02 -1.968997514752146571e-02 3.070564687950536609e-01
-1.637577942161527744e-02 -1.014333761242625087e-02 3.136158668203279376e-01
-1.900595358161893955e-02 -2.592621212279766496e-03 3.079991684062406421e-01
-2.160166135578123203e-02 -1.233806674754589494e-03 3.003402919275686145e-01
-2.424249729661909214e-02 -3.132728700911968645e-03 2.899387300712987781e-01
3.125996081543291893e-03 -1.974397695568796962e-02 2.729859397513791919e-01
-5.246489556121503028e-03 -2.059878951815363735e-02 2.810484365327283740e-01
-1.057883283643690220e-02 -2.000217682627436488e-02 2.907854736549779773e-01
-1.573534986524549595e-02 -1.753708518055674404e-02 3.006944478256627917e-01
-2.159613302497831455e-02 -1.111616737154719203e-02 3.107145623071119189e-01
-2.599417349843946567e-02 -3.116747205531567033e-03 3.151533313794061542e-01
-2.859886667280164829e-02 2.815233702385455672e-03 3.091011167271062732e-01
-3.011929920463529697e-02 1.770460101369053518e-05 2.990842730505391955e-01
-2.843453796195660743e-03 -9.800640707290142473e-03 2.747887939913198352e-01
-8.923082859801922950e-03 -1.317457652596232265e-02 2.768927261931821704e-01
-1.439118316917387119e-02 -1.489036328104731410e-02 2.848674327833577991e-01
-2.115816554574934116e-02 -1.402098483351466029e-02 2.947257914347574115e-01
-2.717412939815488926e-02 -9.932635193145245012e-03 3.039444730384275317e-01
-3.165056488065687290e-02 -5.268765454566448625e-03 3.099936255021020770e-01
-3.485635599641767612e-02 -5.898902466654476484e-04 3.136167422635480762e-01
-3.613471916465726963e-02 3.595078522884875838e-03 3.059616842074319720e-01
-2.193844995050397984e-02 4.467239433022740513e-02 3.137813702924177051e-01
-2.440264752654996983e-02 4.378462412449124486e-02 3.065887176198884845e-01
-2.539473703651395908e-02 4.402910747619870335e-02 3.006017439765855670e-01
-2.636445245294538609e-02 4.760982670875790745e-02 2.969772488577291369e-01
-2.845093539504972568e-02 5.281345003339055211e-02 2.993554928107187152e-01
-3.186647525577512852e-02 5.634449624511006505e-02 3.084559337003156543e-01
-3.624810210018125645e-02 5.901870147379639775e-02 3.181059294147416949e-01
-4.036781868486372105e-02 6.038001381846669346e-02 3.271756757749244571e-01
-2.547877958564725986e-02 4.758498274775746495e-02 3.188639812869951129e-01
-2.831084957866636387e-02 4.663974993916752965e-02 3.120599993271753192e-01
-2.962674877195325962e-02 4.627618023248913914e-02 3.057687327964231372e-01
-3.021998635082212559e-02 4.690259152146580846e-02 3.009470709366723895e-01
-3.127629986553159824e-02 5.097549610825780064e-02 2.955889113945886493e-01
-3.413911840467420689e-02 5.589575895162823826e-02 2.988709219498559833e-01
-3.897210142164198032e-02 5.939112060757878453e-02 3.093923338456079364e-01
-4.394654861240354649e-02 6.163322755190137059e-02 3.204386987490579486e-01
-2.781759134082761875e-02 4.688335412236455113e-02 3.228929199976846576e-01
-3.147194466142622105e-02 4.921786689254048497e-02 3.179421433014795184e-01
-3.357656231670347324e-02 4.934828371795418889e-02 3.123444475932046771e-01
-3.482241115121809116e-02 4.937154815586808354e-02 3.061757766408845782e-01
-3.505286505966154209e-02 4.938197710605862767e-02 2.990580358309671283e-01
-3.654522380380598179e-02 5.392066405209305913e-02 2.937724188668653369e-01
-4.114898970870939365e-02 5.892233752700093419e-02 2.998714902205392718e-01
-4.658937385826078525e-02 6.243951448293927342e-02 3.114555598003789783e-01
-2.858740022926298252e-02 3.926163368912938267e-02 3.234078519744798541e-01
-3.354252806453672520e-02 4.641854592653515965e-02 3.208083742065355182e-01
-3.663247010259595982e-02 5.085388400646451146e-02 3.172149666352197528e-01
-3.829871049671140781e-02 5.276913025470975072e-02 3.128327400190755725e-01
-3.885968706159559360e-02 5.193955467137101323e-02 3.062164642615243793e-01
-3.939021310358015171e-02 5.184570157023671300e-02 2.973952525062486529e-01
-4.268440535812345615e-02 5.741959267350438267e-02 2.934174806578084826e-01
-4.764500191955534092e-02 6.145989351960423619e-02 3.020471640629693866e-01
-2.831575206069913975e-02 3.680238329859975011e-02 3.114948541624471545e-01
-3.407849303035703770e-02 3.963176363202336461e-02 3.180209704441949725e-01
-3.831490805892912022e-02 4.647439920397999913e-02 3.191454008920118213e-01
-4.093494197874036900e-02 5.090544574948552281e-02 3.164359525544568896e-01
-4.262799701242414585e-02 5.464636922868493230e-02 3.133173071546480060e-01
-4.309810257105795017e-02 5.460365318747761876e-02 3.055279300315305591e-01
-4.454184627680746189e-02 5.374167689176800877e-02 2.965941139264032245e-01
-4.821254617123571506e-02 6.033230961354973942e-02 2.937561393482610583e-01
-2.782184562234846226e-02 3.678759762140515477e-02 3.002343446714803576e-01
-3.427817604093519321e-02 3.813399949165585667e-02 3.059232764644548297e-01
-3.921995243577924839e-02 4.129499399157765538e-02 3.124132462544366717e-01
-4.228027096538511387e-02 4.453435742350819737e-02 3.155162640614435077e-01
-4.474593258051839939e-02 5.040002443882229954e-02 3.152764745755121112e-01
-4.707997223882642857e-02 5.579145454856160313e-02 3.131583080394193530e-01
-4.814254424123731724e-02 5.707148850950005681e-02 3.055894532008096576e-01
-4.955679109840360752e-02 5.826344915720227391e-02 2.971437805099412799e-01
-2.877411922960249058e-02 3.797701575847867161e-02 2.902866721851751208e-01
-3.534412315635648838e-02 3.934911468120816380e-02 2.966366492910310626e-01
-4.038400134592023960e-02 4.155524649711850316e-02 3.028797664446756244e-01
-4.369155621676412693e-02 4.420423337312939793e-02 3.076132208807393909e-01
-4.664359545855489841e-02 4.775697195025685460e-02 3.113544554216787219e-01
-4.932837864904371372e-02 5.353759990128281743e-02 3.149511151714250445e-01
-5.201118371038404575e-02 5.990955994518998295e-02 3.132736542029306293e-01
-5.302527105956045261e-02 6.245101072880032689e-02 3.055063345236703753e-01
-3.176921537666288486e-02 4.180493035408261449e-02 2.827267692191526294e-01
-3.661628744153944126e-02 4.164981671663525731e-02 2.872791037661954761e-01
-4.174657842664686314e-02 4.417829045149090916e-02 2.938450806541368365e-01
-4.531130498795477024e-02 4.611252077909711033e-02 2.988615975482389331e-01
-4.909822648911443821e-02 4.842708461972478062e-02 3.039223969681188464e-01
-5.185065722613302341e-02 5.196337604018452794e-02 3.094914191169664264e-01
-5.496135285644498936e-02 5.928998083862069279e-02 3.151493676705285907e-01
-5.754395133404699436e-02 6.716820520403388173e-02 3.139430441660806537e-01
-1.255262574701276890e-02 7.672166840227845341e-02 2.890067667467519641e-01
-1.460863581447569004e-02 7.180404306443932683e-02 2.812758729560300708e-01
-1.667267015724149815e-02 7.617002788054350049e-02 2.751078055007383227e-01
-1.875122568159071079e-02 8.831149402129057080e-02 2.778726638061925769e-01
-1.975092223434415928e-02 8.653259293230775029e-02 2.872686655027791858e-01
-2.123664251117673984e-02 8.415565795319679410e-02 2.945902057690545917e-01
-2.385968646554914585e-02 7.723361688720586926e-02 2.962276012403890491e-01
-2.678104421644178501e-02 6.935106513144972951e-02 2.950347968144342303e-01
-1.601586422471967808e-02 7.166246061267855794e-02 2.940450803143903613e-01
-2.012946388273206821e-02 7.523237557204964787e-02 2.878922418458387256e-01
-2.249132028369871250e-02 7.212220893296006352e-02 2.806815103394910693e-01
-2.502243897466627232e-02 7.831977183985117108e-02 2.736756027443334460e-01
-2.736775508670774570e-02 8.896602519842389256e-02 2.796969608170911670e-01
-2.955923161058393589e-02 8.539324083420041234e-02 2.876118168933317065e-01
-3.363384983091322056e-02 8.104553243781964511e-02 2.935366452438756824e-01
-3.719546577482191196e-02 7.217581027241948277e-02 2.941226185066625476e-01
-1.731294325141874424e-02 6.229732015224698216e-02 2.867060572607442737e-01
-2.316892078666654697e-02 6.753489763530495793e-02 2.912552998168393970e-01
-2.852564981727567783e-02 7.377498286830785901e-02 2.870058835251256824e-01
-3.217031738309827915e-02 7.193621450158360631e-02 2.794315040810033679e-01
-3.391686013488737217e-02 8.276759360040131241e-02 2.735945404274389148e-01
-3.695492378025022617e-02 8.905000814291241795e-02 2.807581023080274463e-01
-4.201953789739576450e-02 8.514040445032122761e-02 2.877496526343747973e-01
-4.543417251257864109e-02 7.841954419443908364e-02 2.917600319487974048e-01
-2.002421698121992222e-02 6.270172649117711217e-02 2.774874315364286304e-01
-2.529911628513303867e-02 5.990479902418854863e-02 2.836917460663244128e-01
-3.174377164392438999e-02 6.398233228417637974e-02 2.885980427963659167e-01
-3.716527602224317661e-02 7.245401588323119313e-02 2.862396881682798266e-01
-3.886330804376569859e-02 7.229263071956637532e-02 2.775572881801053882e-01
-4.063100299386945835e-02 8.402520224506559998e-02 2.737653226358816028e-01
-4.602782359867063633e-02 8.793327135088446767e-02 2.809190422995015979e-01
-5.118288031368223301e-02 8.440615974421206147e-02 2.871107280952855945e-01
-2.433945915250745884e-02 6.876017169150117070e-02 2.713830441934987903e-01
-2.835809371023145786e-02 6.148235702010396153e-02 2.750363618833944201e-01
-3.359693965463605991e-02 5.814438142868283421e-02 2.811161399586126208e-01
-3.917033901958433262e-02 6.356787883731129796e-02 2.875024423701688647e-01
-4.269045522956815830e-02 7.273255025091174275e-02 2.847616121871396899e-01
-4.271732202320066563e-02 7.373888946192863614e-02 2.763945282204076648e-01
-4.666810041813818088e-02 8.666948710622790486e-02 2.734679550630971789e-01
-5.250175228862730137e-02 8.705034122856858403e-02 2.800061599118635058e-01
-2.882288327960935703e-02 7.657725892084243924e-02 2.689333007438108325e-01
-3.264900973587003818e-02 6.811279260607960850e-02 2.700456724269315600e-01
-3.702267936019865147e-02 6.056680173667672307e-02 2.738909915788099170e-01
-4.197917065172163120e-02 5.892311983796361119e-02 2.814456120831891894e-01
-4.569998315124479404e-02 6.631717287989857823e-02 2.869027525885030627e-01
-4.717128282933202854e-02 7.359236960353854329e-02 2.816128329141065478e-01
-4.743741011767355076e-02 7.638750101494196088e-02 2.743487552506849170e-01
-5.094119465498891941e-02 8.765642966198328168e-02 2.721296370727941394e-01
-3.402071377782789341e-02 8.566664594280126721e-02 2.690685138804838061e-01
-3.761210969238248936e-02 7.759388552101853520e-02 2.688746348721906543e-01
-4.133812269716230503e-02 6.942476441206935078e-02 2.696881414158269763e-01
-4.517780548481908909e-02 6.208523751291039616e-02 2.735766068799421191e-01
-4.849440908579794041e-02 6.150190361829999119e-02 2.798656568629667163e-01
-5.128559029250112644e-02 7.076575809212926060e-02 2.850240141851827502e-01
-5.129312655477491489e-02 7.456940102445486218e-02 2.796946585876867175e-01
-5.099470099954572788e-02 7.700169544721546799e-02 2.720999316079542041e-01
-4.085418513565031162e-02 9.351238344850543172e-02 2.697386712534353137e-01
-4.316466233282056919e-02 8.649997335913184315e-02 2.688832775456830859e-01
-4.515745794920889011e-02 7.792825500535371930e-02 2.685545132262632251e-01
-4.785370758323637119e-02 7.016204127165082127e-02 2.696559176547452807e-01
-5.026513269691434971e-02 6.405341268571618230e-02 2.734138265950605273e-01
-5.276889658122030369e-02 6.557027545812132985e-02 2.810285285813733935e-01
-5.486073649077383152e-02 7.525535642223957211e-02 2.828408525092527270e-01
-5.470834976582494846e-02 7.553152197095158726e-02 2.769433975918218493e-01
-1.296366818860050785e-01 1.170184110948682132e-01 4.422461584908887744e-01
-1.320090920343872654e-01 1.219698993215203586e-01 4.449543402297422290e-01
-1.349041566863533603e-01 1.243087110767007175e-01 4.560355067951604724e-01
-1.372425474837299930e-01 1.273821240017056766e-01 4.656526268227025867e-01
-1.389708474889275180e-01 1.304522139677644077e-01 4.755553425056859851e-01
-1.416966796532150852e-01 1.293059942969918552e-01 4.843901590211316943e-01
-1.439054042711731540e-01 1.223961470374703708e-01 4.880384848220273852e-01
-1.472625315800186740e-01 1.172404011437535587e-01 4.919991389615461230e-01
-1.333365917816635715e-01 1.150160452077031437e-01 4.488690466387197375e-01
-1.344801962986466037e-01 1.190371868857980076e-01 4.443711236817762256e-01
-1.372439183905598270e-01 1.239684132585168186e-01 4.475202009780332446e-01
-1.415197693422314273e-01 1.261499693343282047e-01 4.609864772064611316e-01
-1.442764618113514530e-01 1.287655850598454776e-01 4.708457709057256579e-01
-1.477478214219090091e-01 1.304749196121335331e-01 4.814689949853345752e-01
-1.514301330461975681e-01 1.270295625278592411e-01 4.878405825002118945e-01
-1.549451567843433963e-01 1.208753643283486667e-01 4.924553082091733813e-01
-1.377402909710880863e-01 1.181559210369229618e-01 4.600422502262517810e-01
-1.380632289364811527e-01 1.172651184448838535e-01 4.510609552962705493e-01
-1.397462033346172916e-01 1.208471080014348331e-01 4.470033318502828479e-01
-1.435971327736851322e-01 1.250566003570199314e-01 4.541140765650197864e-01
-1.477754109218594181e-01 1.277740915963292423e-01 4.653983087046071887e-01
-1.528310359135147678e-01 1.306507309624791446e-01 4.765693516237661242e-01
-1.572236598148819553e-01 1.315686797449231449e-01 4.858829424483701587e-01
-1.595145941391464817e-01 1.258914602646470371e-01 4.893308774335309863e-01
-1.424750567093369114e-01 1.241289769956708255e-01 4.719306797487661242e-01
-1.428033665433403598e-01 1.190041025826573673e-01 4.616744265658780932e-01
-1.426462263479706394e-01 1.178396327147126499e-01 4.528149709803983569e-01
-1.437285237625118839e-01 1.218344663927197757e-01 4.485391498310491443e-01
-1.480772227659699070e-01 1.248514150926709476e-01 4.575440556509420276e-01
-1.531261273339268314e-01 1.283397135982156101e-01 4.681474760873243213e-01
-1.578046039357658969e-01 1.305680444190144840e-01 4.767302990658208728e-01
-1.627416939154144870e-01 1.300757063278794590e-01 4.841450200183317065e-01
-1.446132913842674839e-01 1.179462058195710483e-01 4.767602131469175220e-01
-1.479172848775860416e-01 1.240651888498902622e-01 4.736511305673047900e-01
-1.474535644665238010e-01 1.182138008722901645e-01 4.632225082023069263e-01
-1.463631235673901188e-01 1.167163608321786228e-01 4.541277781827375293e-01
-1.472455293550964939e-01 1.218842176446557346e-01 4.497093231184408069e-01
-1.523387574270245182e-01 1.246893724152684513e-01 4.592016682727262378e-01
-1.574579507723328220e-01 1.272977536270261112e-01 4.675439269049093127e-01
-1.640574738994118320e-01 1.284656395861745182e-01 4.759065107209607959e-01
-1.447794020786759006e-01 1.143414808163285556e-01 4.679898218018934131e-01
-1.500894383206841098e-01 1.168324408778786960e-01 4.788611204130575061e-01
-1.524795957520481693e-01 1.236801651963830295e-01 4.749189586145803332e-01
-1.512914293125149356e-01 1.176619400927663150e-01 4.650159523589536548e-01
-1.491571285441395389e-01 1.158261319348454776e-01 4.538122162921354175e-01
-1.513459675624844181e-01 1.219377016374707523e-01 4.509664744837209582e-01
-1.571333364263054477e-01 1.234804337570309940e-01 4.591458857757970691e-01
-1.635406494751450168e-01 1.249544007429719272e-01 4.672874704701825976e-01
-1.459064029767986881e-01 1.130275746533513370e-01 4.576342821819707751e-01
-1.504927382483955967e-01 1.142563467571378055e-01 4.693217695457860827e-01
-1.545778506114956485e-01 1.164002587744832340e-01 4.784667090279981494e-01
-1.566186242416378605e-01 1.229513903805852237e-01 4.757403925759717822e-01
-1.552471921458717929e-01 1.174704303691029850e-01 4.658127547008916736e-01
-1.537780382349964725e-01 1.155591776320576969e-01 4.546398118836805224e-01
-1.559577726438519107e-01 1.197912005433678928e-01 4.507462055189535022e-01
-1.626896814122673618e-01 1.216485185274720493e-01 4.574526519281789660e-01
-1.492699377849575626e-01 1.121799481758714023e-01 4.484800890786573291e-01
-1.519924730673309909e-01 1.125356686958909336e-01 4.598941550357267261e-01
-1.561518639936920749e-01 1.148920340189576450e-01 4.715633884770795703e-01
-1.595176302507397281e-01 1.186533366987347904e-01 4.790618167025968432e-01
-1.603937626495834934e-01 1.234830153832078281e-01 4.735181600553914905e-01
-1.581825495377060520e-01 1.169996654340863529e-01 4.632455975515767932e-01
-1.575394638493534671e-01 1.151649413356423679e-01 4.528154180152341723e-01
-1.620494530215736972e-01 1.177054328570008579e-01 4.498896718723699450e-01
-1.519206904485699283e-01 1.166155768284440342e-01 4.412568182451650500e-01
-1.538082168117043125e-01 1.142507923493027988e-01 4.310423851711675525e-01
-1.558308333769318210e-01 1.180328076431393924e-01 4.227702961070463061e-01
-1.587458618596073734e-01 1.230491643497586551e-01 4.284369916422292590e-01
-1.608643562212463962e-01 1.225316730985284153e-01 4.410990000469610095e-01
-1.647732400014874088e-01 1.227224340388417545e-01 4.511248738272115588e-01
-1.689342924073216068e-01 1.199840476462483707e-01 4.591837049229070544e-01
-1.726204448059078800e-01 1.155471225926518741e-01 4.661259398562833667e-01
-1.577360921218868839e-01 1.187028942355752292e-01 4.529327423078939319e-01
-1.605027199402329074e-01 1.168400702724099460e-01 4.421466336352750659e-01
-1.619383089855190860e-01 1.161223036894440952e-01 4.326776982052251697e-01
-1.624397293344017612e-01 1.207895671674847904e-01 4.249169722897931933e-01
-1.651992791011807071e-01 1.237311346182465854e-01 4.343930900795385242e-01
-1.691316284850117313e-01 1.232109686085820499e-01 4.463807389838621020e-01
-1.736945652082440006e-01 1.223238540539384189e-01 4.549230159027501941e-01
-1.784841783955570804e-01 1.192855333635449711e-01 4.625818774802610278e-01
-1.623241931810852634e-01 1.130168681690335575e-01 4.586158589227125049e-01
-1.658029586687561618e-01 1.176018511602521244e-01 4.536662221653386950e-01
-1.682622872903820621e-01 1.163867285201192203e-01 4.443241850240156054e-01
-1.701115884497639286e-01 1.165519414195657077e-01 4.347033695084974170e-01
-1.705667891219135868e-01 1.236534548649430576e-01 4.269268558127805591e-01
-1.741382025793072330e-01 1.242117678472638431e-01 4.388016880257055163e-01
-1.785102554276463138e-01 1.237249543616414371e-01 4.484384626848623157e-01
-1.838327043369289981e-01 1.224217621335625950e-01 4.567356155021116138e-01
-1.622810431435581791e-01 1.077933983603358570e-01 4.467432693345472217e-01
-1.690661304309841739e-01 1.091168859699607196e-01 4.554693520767614245e-01
-1.731687628343578922e-01 1.166187358746171299e-01 4.553564981324598193e-01
-1.761386238649365055e-01 1.167194714495778385e-01 4.464628145797178149e-01
-1.772943579271313297e-01 1.171260980615258518e-01 4.363220304949209094e-01
-1.784486689284321415e-01 1.249450279125809971e-01 4.293942347867414355e-01
-1.827355839922901737e-01 1.243339089402795139e-01 4.410322353942319751e-01
-1.881530874088284122e-01 1.241210346767545047e-01 4.497360185487195849e-01
-1.628937826171394931e-01 1.074106359580397907e-01 4.358677536947652698e-01
-1.688796945527073490e-01 1.075268892297387424e-01 4.433569655520841479e-01
-1.749300428345677005e-01 1.083964911946893039e-01 4.523599044186994433e-01
-1.795289658620831119e-01 1.149775070795655552e-01 4.571944744093343616e-01
-1.815988414600369083e-01 1.171662008115887943e-01 4.497555986745283008e-01
-1.825416677310940372e-01 1.177924146601796451e-01 4.368274331791326404e-01
-1.848462589695927250e-01 1.253852529177308384e-01 4.302808017237111926e-01
-1.907936998322483646e-01 1.246618052670598331e-01 4.410686389310285449e-01
-1.641787954285618412e-01 1.088702121475577655e-01 4.253670469624921679e-01
-1.703658320620533573e-01 1.083651186624408069e-01 4.323685363633558154e-01
-1.758130856469151126e-01 1.082213839242101017e-01 4.402755693299695849e-01
-1.811035492136952030e-01 1.087884438881516758e-01 4.494152039987966418e-01
-1.858749755337711917e-01 1.131584962556004825e-01 4.579546422464773059e-01
-1.877697699382778751e-01 1.175399144837498966e-01 4.510645166737958789e-01
-1.888400383904453861e-01 1.170484965393185917e-01 4.387522534234449267e-01
-1.913656511023518192e-01 1.220622604438901249e-01 4.301962972385808825e-01
-1.681452461197849857e-01 1.148191040107846561e-01 4.206589729292318225e-01
-1.739138655975338565e-01 1.107583233812690082e-01 4.242851928574964404e-01
-1.792437576368328678e-01 1.094345042208075824e-01 4.311944217188283801e-01
-1.835053258255001651e-01 1.092250348726153675e-01 4.400741428835317492e-01
-1.885082491353031742e-01 1.094569807598233524e-01 4.488582507474347949e-01
-1.935505413129803287e-01 1.136576330015302005e-01 4.582740188343450427e-01
-1.945636116579052555e-01 1.172079613158345524e-01 4.502676696283742785e-01
-1.957885616138455021e-01 1.150929538259148899e-01 4.381605283124372363e-01
-1.732850961997982608e-01 1.222204101929307285e-01 4.207908109528943896e-01
-1.789420314743992435e-01 1.176371333846688572e-01 4.208489701850339770e-01
-1.833059184864040958e-01 1.127071810612321201e-01 4.248348072869703174e-01
-1.871004246786114322e-01 1.102408433059096637e-01 4.320325002772733569e-01
-1.922030144050594913e-01 1.091875677654385868e-01 4.403887883527204394e-01
-1.973060288146015750e-01 1.093289201805234256e-01 4.503980324370786548e-01
-2.013334476068493473e-01 1.151484867283940616e-01 4.577225343091413379e-01
-2.015095942333218204e-01 1.166440492221951786e-01 4.476574332220479846e-01
-9.460026888697115055e-02 1.166968663880467716e-01 4.182760686380788684e-01
-9.580329737215009800e-02 1.197568645426869693e-01 4.112559863133355975e-01
-9.812108452020851246e-02 1.268575137207150760e-01 4.107928284211084247e-01
-1.008295572973665344e-01 1.281880495795846286e-01 4.172678001923486590e-01
-1.031790517881390201e-01 1.289145743200421634e-01 4.273598388535901904e-01
-1.055849006661091494e-01 1.295819377252698246e-01 4.366711945040151477e-01
-1.085695277579006301e-01 1.290231292793393436e-01 4.449099422199651599e-01
-1.112118784949061023e-01 1.246598271379113498e-01 4.521325276000425220e-01
-9.955325793995228878e-02 1.211721209535241428e-01 4.279034108621999621e-01
-1.009248346235480653e-01 1.200456080684304538e-01 4.213997543556615710e-01
-1.013655208662029850e-01 1.235365440795064274e-01 4.133244984550401568e-01
-1.038497805274900543e-01 1.302627829560876194e-01 4.134725265903398395e-01
-1.072617059253033744e-01 1.311161612817883793e-01 4.227196023566648364e-01
-1.108892581105109798e-01 1.325806883821130100e-01 4.317386419279500842e-01
-1.150198432296392070e-01 1.337420252809167209e-01 4.419832573039457202e-01
-1.185798098012682544e-01 1.324042921611905399e-01 4.507716119987890124e-01
-1.044184801430318998e-01 1.240381581434846225e-01 4.369868085486814380e-01
-1.059796424960595118e-01 1.230269243666768375e-01 4.299026102526113391e-01
-1.068472424667206155e-01 1.223983151564240757e-01 4.220253572566434741e-01
-1.075503090541687357e-01 1.270484683761239353e-01 4.147955373628064990e-01
-1.104649214684840786e-01 1.334004534134507480e-01 4.176292613847181201e-01
-1.142983485624071704e-01 1.339059939334035221e-01 4.263454497558996081e-01
-1.194077797844883548e-01 1.363433768698811832e-01 4.363949791295453906e-01
-1.252834957703825580e-01 1.368660239228844944e-01 4.466375381452962756e-01
-1.057413165835541236e-01 1.169044470140576664e-01 4.373336032731458545e-01
-1.111038553207990276e-01 1.262219754705071750e-01 4.392154411179944873e-01
-1.124097753926989185e-01 1.247222965309262577e-01 4.312334255082532763e-01
-1.126582261785742389e-01 1.234585700282693210e-01 4.222059742314741015e-01
-1.133646818488713848e-01 1.289787089178204837e-01 4.156119198305532336e-01
-1.171852902188774692e-01 1.340671425411343876e-01 4.212605849606916308e-01
-1.223343454912182438e-01 1.347276551375031772e-01 4.290268690092489123e-01
-1.283279538765427219e-01 1.358087418326974216e-01 4.383041680557653308e-01
-1.055854203441057848e-01 1.167499107966065708e-01 4.283476666314527392e-01
-1.126634918764111148e-01 1.202205775031686130e-01 4.393529266817495227e-01
-1.178461474045988666e-01 1.284357888350129429e-01 4.401781529886648059e-01
-1.182826815783855068e-01 1.254005750367284122e-01 4.318822444183751941e-01
-1.187594870716210949e-01 1.242617835948109928e-01 4.243875116808339953e-01
-1.189865388586994754e-01 1.292892155894875827e-01 4.157593630952760577e-01
-1.236441333457705127e-01 1.322801468619942966e-01 4.211587057216092944e-01
-1.291217163815971958e-01 1.333124546060204807e-01 4.284154445631429553e-01
-1.063800151605036604e-01 1.176025775918603244e-01 4.186877206666395068e-01
-1.128369758516427623e-01 1.200547685572743717e-01 4.310758680803701282e-01
-1.190806098893162357e-01 1.225667690584302250e-01 4.397444844944402575e-01
-1.236803636565682041e-01 1.293907968053460422e-01 4.402700931532308459e-01
-1.232365605100866901e-01 1.254940462956071201e-01 4.307318524224683642e-01
-1.227501493558165180e-01 1.240550113567948642e-01 4.233172357780858874e-01
-1.239006158575293171e-01 1.284498108276963535e-01 4.159206793410703540e-01
-1.292361219093081104e-01 1.310232041129708591e-01 4.205659598810598254e-01
-1.094827728956815349e-01 1.201748458394646946e-01 4.108163238270208240e-01
-1.143902663752314197e-01 1.202889924594998661e-01 4.224517763359472156e-01
-1.201827603071805584e-01 1.217364614555478397e-01 4.318963483674451709e-01
-1.250715081259485828e-01 1.238721815595269504e-01 4.396083847386762500e-01
-1.282829747214790928e-01 1.297729706117749515e-01 4.390775383217260242e-01
-1.283319268986460315e-01 1.263391544768452945e-01 4.310924828751012683e-01
-1.280357625946280109e-01 1.235273388871789280e-01 4.232516632182523608e-01
-1.300235551461454975e-01 1.266936717280984226e-01 4.164432295365259051e-01
-1.137463154882070171e-01 1.243381557712197605e-01 4.071088329656049609e-01
-1.179878313705202686e-01 1.213750114390492740e-01 4.147289925022050738e-01
-1.223719653352972614e-01 1.212791187414765659e-01 4.245310024125501513e-01
-1.272318263217684375e-01 1.229468790540337864e-01 4.330489755375310779e-01
-1.312112223967787372e-01 1.259254237362981144e-01 4.403727696044370532e-01
-1.342213743045803653e-01 1.304955390939355198e-01 4.389786616666242480e-01
-1.341455255314585315e-01 1.259254200110078159e-01 4.306043655378744006e-01
-1.347239588066813099e-01 1.224242990562558475e-01 4.219466642243787646e-01
-1.573686233310667149e-02 8.033867673537287146e-02 2.895434842212125659e-01
-1.803944936542478672e-02 7.610981601344946057e-02 2.805335418088361621e-01
-2.025113186387983433e-02 7.833607324453595311e-02 2.717478246195241809e-01
-2.210107377319303623e-02 9.031036791446211964e-02 2.743756667478010058e-01
-2.339215508251157871e-02 9.100241509320738942e-02 2.827839598758146167e-01
-2.698033979682890049e-02 9.034802501144412190e-02 2.913150236709043384e-01
-3.133383324890104404e-02 8.513769197332266003e-02 2.991442651255056262e-01
-3.499348393230405918e-02 7.493432021754387051e-02 3.012425088090822101e-01
-2.005205235033002964e-02 7.975669587784040004e-02 2.993148796958848834e-01
-2.360341629533735386e-02 8.034980496329779953e-02 2.887965560657903552e-01
-2.608898958711591831e-02 7.706647126058641106e-02 2.800612122518941760e-01
-2.830860695390668980e-02 8.138274044784310490e-02 2.717566461069509387e-01
-3.043719312696424595e-02 9.199757144840958745e-02 2.761442334158346057e-01
-3.416937521247831455e-02 9.227696822079423100e-02 2.847450495464727283e-01
-4.054165563135114780e-02 8.869471789392235905e-02 2.937104523880407214e-01
-4.422500661163297764e-02 8.115921790766122967e-02 2.988935270113870502e-01
-2.021744778900114170e-02 6.922803183140757710e-02 2.924441293580457568e-01
-2.741778573541608921e-02 7.582157121094468266e-02 2.965859182877466083e-01
-3.191786191015211216e-02 8.021617169895733923e-02 2.874085129005834460e-01
-3.467565706520048252e-02 7.804488080608251721e-02 2.801494643790647388e-01
-3.592185607700315586e-02 8.540124694871309430e-02 2.712081418139860034e-01
-4.081873527317014805e-02 9.232992508503201634e-02 2.775091946823522449e-01
-4.616453430204359165e-02 9.086703152450326115e-02 2.861602649791166186e-01
-5.058021029977766148e-02 8.763010396676662594e-02 2.939351693494245410e-01
-2.249972453861204258e-02 6.813679465147259862e-02 2.819053948624059558e-01
-2.898532828836408726e-02 6.740451992543938786e-02 2.882282257778570056e-01
-3.524597665815321079e-02 7.276148737462762028e-02 2.935595483286306262e-01
-3.886563262491193882e-02 8.001971190849843651e-02 2.877195597393438220e-01
-4.103100231437650791e-02 7.858942860791984231e-02 2.784956143004819751e-01
-4.363914883284536472e-02 8.739059527459147603e-02 2.722344965441152453e-01
-4.959728127865759006e-02 9.238579046967032582e-02 2.782454759581014514e-01
-5.494748732595411411e-02 9.160286949070695073e-02 2.857021138770505786e-01
-2.694165638236967197e-02 7.207087815793755681e-02 2.706163794500753284e-01
-3.170110961942640415e-02 6.835820448639395863e-02 2.780983269913122058e-01
-3.655406764297453037e-02 6.745859903337958485e-02 2.848081336123868823e-01
-4.201483658103910557e-02 7.106184975298646123e-02 2.922516734106466174e-01
-4.499960622339216343e-02 8.014607459943334788e-02 2.874999091727659106e-01
-4.606007343678442112e-02 7.901971838025900752e-02 2.777976960642263293e-01
-4.996222189216581455e-02 8.947485421838763386e-02 2.723863542778417468e-01
-5.517724833040205112e-02 9.193185639622214467e-02 2.769502744777128100e-01
-3.367140820770231358e-02 8.050430689643661708e-02 2.656996519071981311e-01
-3.654142400770155064e-02 7.348553107174637944e-02 2.687943697674199939e-01
-3.991306504754987827e-02 6.923906334730389744e-02 2.750312731368467212e-01
-4.450266367344823948e-02 6.889119015129807622e-02 2.825880841119214892e-01
-4.914155906586614719e-02 7.115334940197470814e-02 2.910263807279989123e-01
-5.096797949223486057e-02 8.165259349214437634e-02 2.864463896257802844e-01
-5.130398205070463291e-02 7.920524074750545651e-02 2.765021667582914233e-01
-5.359177222995725742e-02 8.817529833930137784e-02 2.697806552750989795e-01
-3.888509354143110386e-02 8.981401861699822575e-02 2.639124215347692370e-01
-4.183585128335920444e-02 8.240075483507069976e-02 2.644163564546033740e-01
-4.476320675163236729e-02 7.503677920492890507e-02 2.669718683464452624e-01
-4.841403594760862461e-02 7.128493503721955449e-02 2.739827529294416308e-01
-5.205935543923345676e-02 7.115488142760995061e-02 2.820841268403455615e-01
-5.474512583165136448e-02 7.665767815949919850e-02 2.910710693104192615e-01
-5.515588751583067051e-02 8.176935654653760821e-02 2.835937783820554614e-01
-5.533225020914045444e-02 7.888756917844119698e-02 2.737417117459699512e-01
-4.570024019627538792e-02 9.775419176610711247e-02 2.640153960091993213e-01
-4.822422868161169163e-02 9.098202099146845967e-02 2.628120899898931384e-01
-4.996589875369039646e-02 8.302856974358263642e-02 2.631963536841794848e-01
-5.139933458118406406e-02 7.574945657568576962e-02 2.667923317058011889e-01
-5.391213974504438511e-02 7.327073921504023701e-02 2.738128647906705737e-01
-5.670447206644979588e-02 7.342793203013542325e-02 2.821659044129773974e-01
-5.951118400840726963e-02 7.980387318701076538e-02 2.887363479239866138e-01
-5.996989762930837742e-02 8.214487779940071732e-02 2.815403089625760913e-01
-2.150629975512501346e-01 9.818409399183991582e-02 5.651073203189298511e-01
-2.201851897552487003e-01 9.394308288636210591e-02 5.612635210854932666e-01
-2.236868732288357364e-01 9.301892497631314427e-02 5.583701477153226733e-01
-2.247994535282131778e-01 9.836249628158810765e-02 5.563746736152097583e-01
-2.258257784560200321e-01 1.021888127276540104e-01 5.622727469308301806e-01
-2.291727580740925418e-01 1.034778488525986972e-01 5.663375899894163013e-01
-2.341077022865292179e-01 9.949125365408661992e-02 5.700744286878034472e-01
-2.380077236011501896e-01 9.179200154783728749e-02 5.701636717421934009e-01
-2.202449285104748355e-01 9.684175827594998509e-02 5.701713458402082324e-01
-2.263655506685253727e-01 9.840126537772420079e-02 5.640050814254209399e-01
-2.311205112054821598e-01 9.527768862488272816e-02 5.607887104852125049e-01
-2.332682751729961979e-01 9.506596827002766759e-02 5.573706225259229541e-01
-2.334610514953610050e-01 1.014973690459370914e-01 5.576036915881559253e-01
-2.368890487268444645e-01 1.035072115907311741e-01 5.624098227126523852e-01
-2.417954497650143253e-01 1.018452049890399280e-01 5.664886430604383349e-01
-2.475487433984753238e-01 9.786714629324677617e-02 5.695588336093351245e-01
-2.223983176663395511e-01 8.819398812072876126e-02 5.663076535565778613e-01
-2.309392534807201969e-01 9.464932528378966481e-02 5.686126694781705737e-01
-2.359143041685101139e-01 9.754727237912419469e-02 5.633906916482374072e-01
-2.396351837232586490e-01 9.535810274126532704e-02 5.599342182977125049e-01
-2.404211156681057560e-01 9.704396144541505009e-02 5.554982767207548022e-01
-2.432231449201580631e-01 1.020459180423856083e-01 5.570188955171033740e-01
-2.483132772758480655e-01 1.039570515701413456e-01 5.618664816720411181e-01
-2.535221718862530338e-01 1.023368240991473499e-01 5.663254157407209277e-01
-2.247752465918537723e-01 8.718204001950624615e-02 5.607802913291379809e-01
-2.324092828348156559e-01 8.723797758164408833e-02 5.641935215098783374e-01
-2.395429902389523136e-01 9.326768123599293858e-02 5.679813370807096362e-01
-2.439756237581249820e-01 9.729656220468285710e-02 5.627038971288129687e-01
-2.455513619497295963e-01 9.504472014548781544e-02 5.583334908587858081e-01
-2.462228380754467594e-01 9.752999075742962987e-02 5.538288400275632739e-01
-2.506656043842312442e-01 1.027835534611583057e-01 5.559215591056272388e-01
-2.569606893375393497e-01 1.048182101646304432e-01 5.606767282588407397e-01
-2.266464748099323856e-01 8.939065427573922307e-02 5.536514864070340991e-01
-2.353151433780666935e-01 8.789281795787218243e-02 5.584718183381482959e-01
-2.417340569808956730e-01 8.801586243378523022e-02 5.625400141580030322e-01
-2.466092847898480045e-01 9.253821165355446965e-02 5.660768047673627734e-01
-2.494572841241833316e-01 9.707780384513142735e-02 5.614497259957715869e-01
-2.507045113161083805e-01 9.480238535495999486e-02 5.569651619298383594e-01
-2.520612620428082096e-01 9.866912492605450780e-02 5.520100936992093921e-01
-2.567030333593365299e-01 1.033809931674838367e-01 5.539929614169523120e-01
-2.298888706281658756e-01 9.302597695084813267e-02 5.495095745427533984e-01
-2.372034632280346500e-01 9.109005347880128056e-02 5.533969894750043750e-01
-2.434193634107586490e-01 8.928666186573508412e-02 5.577256873948499560e-01
-2.478835724905010807e-01 8.837266794460418851e-02 5.608724997146055102e-01
-2.524120055749889957e-01 9.201297086718085438e-02 5.642373309237882495e-01
-2.548594765975948917e-01 9.734422356876137883e-02 5.600490615470334888e-01
-2.549698196962353336e-01 9.523749087991717488e-02 5.548881486756727099e-01
-2.559400343015667545e-01 9.953519159051182896e-02 5.489471004111692309e-01
-2.344609045103069889e-01 9.902323239537480504e-02 5.495462164981290698e-01
-2.407173656538006412e-01 9.544257369878295094e-02 5.489973322255536914e-01
-2.469882809236523258e-01 9.217409060391190678e-02 5.518522904021665454e-01
-2.517390542343136417e-01 8.955852703245881230e-02 5.560639098985120654e-01
-2.561487697675701725e-01 8.925602600964310795e-02 5.594221696956083179e-01
-2.588779621437069522e-01 9.431711972745659978e-02 5.631081358296796679e-01
-2.591951780632015812e-01 9.840373524519208104e-02 5.579458967549726367e-01
-2.587664716556545841e-01 9.642200560363534123e-02 5.515916839940473437e-01
-2.417684637620922672e-01 1.046404691139102283e-01 5.500841484172269702e-01
-2.471930377796169864e-01 1.005500277230382267e-01 5.474510536296293139e-01
-2.507399462774273502e-01 9.535718166323903233e-02 5.462048546178266406e-01
-2.551982693984982120e-01 9.178225153180363804e-02 5.496432379586622119e-01
-2.590529911830898868e-01 8.996925425770285756e-02 5.541304246289655566e-01
-2.614231996849056827e-01 9.111433678361180455e-02 5.571058735949918628e-01
-2.630451910808560001e-01 9.690944680067303807e-02 5.603473231894895434e-01
-2.636148773744579898e-01 9.905244053395989567e-02 5.537929431302472949e-01
-1.927565105870243656e-01 1.001520158449054065e-01 4.735178769333288074e-01
-1.948857151582714664e-01 9.978349150213006169e-02 4.632081211311742663e-01
-1.970015384867664920e-01 1.065800023922562900e-01 4.608359978301450610e-01
-1.990629576757427799e-01 1.085777098039031330e-01 4.707192004425451159e-01
-2.012077563121792423e-01 1.096338985213876072e-01 4.849356309277936816e-01
-2.038329758360859500e-01 1.100181733915448490e-01 4.966051027877256274e-01
-2.079512246563908207e-01 1.094007214257359806e-01 5.051891700131818652e-01
-2.130861424520489322e-01 1.050298383185506168e-01 5.140057400567457080e-01
-1.978851996973034488e-01 1.022926347056269947e-01 4.820053473813459277e-01
-2.003005363657948124e-01 1.001623591134190860e-01 4.717454806668683887e-01
-2.018635564163204776e-01 1.015313287922978702e-01 4.628867775900289416e-01
-2.035719447448727237e-01 1.073441004106641117e-01 4.619076744420453906e-01
-2.063192569330212223e-01 1.093052068451285663e-01 4.761987373931333423e-01
-2.100975730135914432e-01 1.099306253442406955e-01 4.900021896464750171e-01
-2.152235203102108585e-01 1.096382813254237476e-01 5.018362299306318164e-01
-2.213397764280315982e-01 1.072500629076600376e-01 5.106536791427060962e-01
-2.028884657338139164e-01 1.042132304707408252e-01 4.915075049502775073e-01
-2.059290253236767398e-01 1.023621542105317417e-01 4.807960734469816089e-01
-2.071004130557057010e-01 1.008556635776400867e-01 4.707264424068853259e-01
-2.080935083940502750e-01 1.034246852347493473e-01 4.631941438419744372e-01
-2.102960043266293155e-01 1.084353292086959186e-01 4.674910724861547351e-01
-2.145014249399181949e-01 1.096123737940430942e-01 4.812245861394330859e-01
-2.205744602396961795e-01 1.101525669643521610e-01 4.959481105906888843e-01
-2.267516323044773685e-01 1.092624833533406559e-01 5.056313172681257129e-01
-2.066255130484577762e-01 1.033850686350703540e-01 5.002521321875974536e-01
-2.104233123972889530e-01 1.047189088264346424e-01 4.909039483172819018e-01
-2.126274474575993167e-01 1.034738553413987461e-01 4.809758485062047839e-01
-2.132844694569584476e-01 1.025280581513285938e-01 4.709589973790571094e-01
-2.139605947449680912e-01 1.071824209490657154e-01 4.635146305663511157e-01
-2.177256264403339969e-01 1.103153062710404697e-01 4.709048689110204577e-01
-2.238484539702412235e-01 1.119479072937608066e-01 4.851979211671277881e-01
-2.300342463567730533e-01 1.125899871537328067e-01 4.975407914025709033e-01
-2.066087566926952945e-01 9.885712915154698521e-02 4.918634787900373340e-01
-2.128903337433811771e-01 1.010350232669949833e-01 4.984510437352582812e-01
-2.170660116389271366e-01 1.049864479997992817e-01 4.926412597997114062e-01
-2.183820523932453739e-01 1.047573668608308139e-01 4.824518904788419604e-01
-2.186952822521206485e-01 1.037362908670544925e-01 4.715523094637319446e-01
-2.204999693348881351e-01 1.096091886708379093e-01 4.641538158757612109e-01
-2.255058430746075260e-01 1.140646395930886570e-01 4.728152722818776965e-01
-2.311947040870663272e-01 1.152953637489915195e-01 4.876012549502775073e-01
-2.057622515275951969e-01 9.725570508333447606e-02 4.747652829391881824e-01
-2.134065025165554630e-01 9.795631856712105900e-02 4.842773721320554614e-01
-2.204006530955311405e-01 1.008797587552905384e-01 4.933809236390516162e-01
-2.237341620638844120e-01 1.040398964384436908e-01 4.948866561753675342e-01
-2.249596633627888309e-01 1.070160792866587940e-01 4.868997976882383227e-01
-2.249456935241695987e-01 1.079000664600968662e-01 4.754989639623090625e-01
-2.262294136598583805e-01 1.115643234649539295e-01 4.674552724463865161e-01
-2.295594432070728885e-01 1.149214973399281803e-01 4.721029967768117785e-01
-2.074249454453465091e-01 9.747455657514336735e-02 4.611006126506254077e-01
-2.143493958428379642e-01 9.730657951029542119e-02 4.697832436067983508e-01
-2.208318628981587040e-01 9.908523053916695744e-02 4.781638056738302112e-01
-2.267230444267269718e-01 1.023229213157534900e-01 4.866069600684568286e-01
-2.297945015743252384e-01 1.080483944812655750e-01 4.945496366126462817e-01
-2.299416952445980655e-01 1.113173292675853077e-01 4.903742120368406177e-01
-2.296410419657703983e-01 1.103066170314193073e-01 4.803305611712858081e-01
-2.294037409737583744e-01 1.090285388478875461e-01 4.700230107409879565e-01
-2.113542847946163761e-01 1.015614552149415317e-01 4.564706281526014209e-01
-2.163038544967648136e-01 9.955749304088357121e-02 4.567768246633931994e-01
-2.228033684804913150e-01 1.011384280124545398e-01 4.633390203816816211e-01
-2.277806841447826969e-01 1.039134153822303119e-01 4.728627697331830859e-01
-2.311976694181439029e-01 1.062116419622540775e-01 4.843528167111799121e-01
-2.332665764406200992e-01 1.108312403509259525e-01 4.943415567977353930e-01
-2.331004433944698917e-01 1.125630384037137333e-01 4.913045213324949145e-01
-2.326443337514874088e-01 1.104356964776158634e-01 4.802702114684507251e-01
-1.204349280014511692e-01 1.236592216143250766e-01 4.309680358273908496e-01
-1.224849682912108051e-01 1.212628354975819889e-01 4.236604765756055713e-01
-1.235750590130564319e-01 1.225324293324590030e-01 4.157556936843320727e-01
-1.249373399332043277e-01 1.320328732678532901e-01 4.170844116015359759e-01
-1.260256834938999759e-01 1.337291804799676243e-01 4.290648744208738208e-01
-1.277545497432228672e-01 1.344642622122407261e-01 4.398074195487424731e-01
-1.302314561471220600e-01 1.298146528849244419e-01 4.472065985901281238e-01
-1.317405321314808475e-01 1.199748163768887821e-01 4.490654811961576343e-01
-1.243927173927303897e-01 1.258800273487210575e-01 4.408135832054540515e-01
-1.268148806556936847e-01 1.246562732109666172e-01 4.318799421889707446e-01
-1.288242687150713550e-01 1.236531270393967930e-01 4.248021811945363879e-01
-1.292755652829882251e-01 1.265460384735703769e-01 4.152578570647165179e-01
-1.320718445494648563e-01 1.340673288056493107e-01 4.217477635247632861e-01
-1.342828173801180469e-01 1.345348154852032962e-01 4.334892899496480823e-01
-1.375530355289455997e-01 1.328322907635808292e-01 4.440645993454381824e-01
-1.389945962145802127e-01 1.255545226583123508e-01 4.480803877813741565e-01
-1.247521892800804721e-01 1.175147389719128910e-01 4.403903306229040027e-01
-1.303475939348217594e-01 1.249175948748231235e-01 4.419688627822324634e-01
-1.331773412093397724e-01 1.258473453769326511e-01 4.327885479433462024e-01
-1.354191110148903476e-01 1.254398619482159916e-01 4.249222174985334277e-01
-1.366456032410141574e-01 1.345182751962781253e-01 4.152076662285253406e-01
-1.399244882777210819e-01 1.363201943883538547e-01 4.260670439107343554e-01
-1.431296311929699527e-01 1.363153030821919742e-01 4.364521772367879748e-01
-1.453894891455647098e-01 1.319388432154298130e-01 4.443706244928762317e-01
-1.235313743963715183e-01 1.156379153678059879e-01 4.296398804290220141e-01
-1.306720238789793598e-01 1.166815330931783024e-01 4.381235436303541064e-01
-1.370095939054962741e-01 1.244278607616067234e-01 4.414569855434820056e-01
-1.401161581888672458e-01 1.272919794270634952e-01 4.321412713034078479e-01
-1.411751092091080295e-01 1.272637566277623478e-01 4.209831625921651721e-01
-1.438079544022556888e-01 1.379994211444497410e-01 4.188145668013021350e-01
-1.471244350686546909e-01 1.379563158104062381e-01 4.278783098561689258e-01
-1.505024463549133884e-01 1.370773596415162388e-01 4.367391587002202868e-01
-1.243427128210541355e-01 1.157594939419865909e-01 4.204027549130842090e-01
-1.313419167563196766e-01 1.160200221190095249e-01 4.288811133010312915e-01
-1.384975903347012149e-01 1.169618239352345768e-01 4.369810268981382251e-01
-1.448172584786888706e-01 1.255988275358319584e-01 4.394994647009298205e-01
-1.456256613746162998e-01 1.281724555143952671e-01 4.291065306169912219e-01
-1.447373062983032810e-01 1.293579732725262943e-01 4.167669274611398578e-01
-1.484369367971893894e-01 1.378164386102795902e-01 4.186278030974790454e-01
-1.534600400045391666e-01 1.375119855353474918e-01 4.261264920933172107e-01
-1.280529380455490696e-01 1.189307143637776676e-01 4.109816782874986529e-01
-1.338484243169304477e-01 1.178198290714860264e-01 4.187623382313176990e-01
-1.407838531449314701e-01 1.179986467311024967e-01 4.264607847435399890e-01
-1.463494629278656589e-01 1.192997080931306186e-01 4.346743718488141894e-01
-1.503409587457653629e-01 1.276143399724603000e-01 4.371157780988141894e-01
-1.491602987661835300e-01 1.270111372420430484e-01 4.246614322764798999e-01
-1.492773101344582187e-01 1.303771195659280124e-01 4.143094503087922931e-01
-1.541353643551346408e-01 1.355004777857899967e-01 4.171591185731813312e-01
-1.333400786533829319e-01 1.263266151497006717e-01 4.072695792419835925e-01
-1.382509314134594547e-01 1.211507936665654483e-01 4.100441493792459369e-01
-1.435512632742401706e-01 1.200935898074746433e-01 4.171731740934774280e-01
-1.482124321773525821e-01 1.195852962979913059e-01 4.255977690918371081e-01
-1.524627425387379276e-01 1.210001950809598270e-01 4.334037796361371875e-01
-1.547492288663860904e-01 1.293109452077985111e-01 4.323170006973668933e-01
-1.536086120322224247e-01 1.260230375179887119e-01 4.207679302198812366e-01
-1.543005139246460544e-01 1.294396577129006687e-01 4.120813616318628192e-01
-1.404182233527180301e-01 1.345252377638459507e-01 4.070028298301622272e-01
-1.435930312290665256e-01 1.279130076715588871e-01 4.059965879423543811e-01
-1.465775736287113773e-01 1.222213601419568363e-01 4.096537501318380237e-01
-1.500995897367474186e-01 1.209642460295796695e-01 4.165670134825631976e-01
-1.541188128903385746e-01 1.208231432089448276e-01 4.250539884669706225e-01
-1.579523563995834934e-01 1.233005692908406559e-01 4.336329669458791614e-01
-1.587821238353726017e-01 1.282132623443246189e-01 4.269779965979978442e-01
-1.587709107115742313e-01 1.251323168823361698e-01 4.182898484868928790e-01
-1.578210399165627109e-01 1.107565967092156711e-01 5.062063232762739062e-01
-1.601189815118786441e-01 1.086214409867167774e-01 4.993113026721403003e-01
-1.610685095801827060e-01 1.113454384455323520e-01 4.943798825843259692e-01
-1.624898903682705509e-01 1.181811636039853397e-01 4.964890525443479419e-01
-1.634236455574509250e-01 1.175505017587781253e-01 5.044256047112867236e-01
-1.649943397059914219e-01 1.173936782130837742e-01 5.117760346038267016e-01
-1.672447391465183841e-01 1.153695156523824039e-01 5.195981160504743457e-01
-1.678730093553539859e-01 1.084665676304936710e-01 5.202168867690488696e-01
-1.623462431743618595e-01 1.117463392862916294e-01 5.138044253690168262e-01
-1.648870289936539280e-01 1.105739010223985019e-01 5.071325496537610888e-01
-1.662380017951008426e-01 1.100948622176289859e-01 5.017178998095914721e-01
-1.665643409505364048e-01 1.137736161896825138e-01 4.962996289832517505e-01
-1.672183864429470646e-01 1.209926588186860386e-01 4.998661027057096362e-01
-1.688674085453030216e-01 1.188819652149319950e-01 5.077433482510969043e-01
-1.716087081149098026e-01 1.180029196390748325e-01 5.156677261693403125e-01
-1.747677170351025211e-01 1.140703579136967960e-01 5.210927621228620410e-01
-1.629685119405266391e-01 1.044835542986035648e-01 5.123780415160581470e-01
-1.686229549959179508e-01 1.118211654672265354e-01 5.141379133565351367e-01
-1.703611754491802799e-01 1.118252260336518589e-01 5.091982231242582202e-01
-1.715322353556629764e-01 1.110520662465930286e-01 5.037421182496473193e-01
-1.716318198159214603e-01 1.165225786814332309e-01 4.976836488349363208e-01
-1.733471371844288456e-01 1.220874210545659366e-01 5.026204184396192431e-01
-1.758807294681545841e-01 1.200158057460427585e-01 5.105950430734083056e-01
-1.797328808024403202e-01 1.184558180818200412e-01 5.178211227757856250e-01
-1.629845046117779361e-01 1.032731534639239612e-01 5.044990078313276172e-01
-1.693231382086750614e-01 1.046368239173531833e-01 5.118000403745099902e-01
-1.741670512273785221e-01 1.117174384841561618e-01 5.147013262612745166e-01
-1.754413836315151798e-01 1.120974702486634555e-01 5.100240603787824512e-01
-1.756255992367741214e-01 1.105358769843221012e-01 5.036768362624570727e-01
-1.754063957050320255e-01 1.188874935457349125e-01 4.973939553601667285e-01
-1.783947192743298160e-01 1.215252747485280338e-01 5.034339324338361621e-01
